ply
format ascii 1.0
element vertex 1196
property float x
property float y
property float z
property uchar red
property uchar green
property uchar blue
end_header
5.242236 -1.540373 -8.944099 161 138 79
5.325000 -1.550000 -9.000000 184 166 103
5.341615 -1.540373 -8.944099 220 204 157
5.425000 -1.550000 -9.000000 218 196 166
5.475000 -1.550000 -9.000000 166 116 118
5.559749 -1.559748 -9.056603 138 72 75
5.610063 -1.559748 -9.056603 137 73 72
-2.629283 -0.797508 -4.485981 134 143 56
-2.422452 -0.756278 -4.254062 193 99 90
-2.313390 -0.729345 -4.102564 179 140 108
-2.242678 -0.714086 -4.016737 178 142 109
-2.211111 -0.711111 -4.000000 176 141 107
-2.105263 -0.690958 -3.886640 176 143 106
-1.997413 -0.662354 -3.725744 177 144 108
-1.971613 -0.660645 -3.716129 175 143 104
-4.482972 -1.585139 -8.916409 239 41 56
-4.287425 -1.532934 -8.622754 231 36 54
-4.152493 -1.501466 -8.445747 226 35 51
-4.081633 -1.492711 -8.396502 223 33 49
-4.000000 -1.479769 -8.323699 219 31 49
-3.942363 -1.475504 -8.299712 209 32 47
-3.873925 -1.467049 -8.252149 190 33 47
-3.806268 -1.458689 -8.205129 190 32 46
-3.750000 -1.454545 -8.181818 177 33 43
-3.704545 -1.454545 -8.181818 144 36 43
-3.659091 -1.454545 -8.181818 119 36 42
-3.613636 -1.454545 -8.181818 105 39 43
-3.568182 -1.454545 -8.181818 99 40 45
-3.512748 -1.450425 -8.158640 92 39 44
-3.467422 -1.450425 -8.158640 83 40 38
-3.422096 -1.450425 -8.158640 86 40 35
-3.386364 -1.454545 -8.181818 90 39 38
-3.340909 -1.454545 -8.181818 90 40 37
-3.295455 -1.454545 -8.181818 89 41 39
-3.240793 -1.450425 -8.158640 91 40 39
-3.195467 -1.450425 -8.158640 88 40 40
-3.150142 -1.450425 -8.158640 85 42 38
-3.104816 -1.450425 -8.158640 88 43 39
-3.059490 -1.450425 -8.158640 91 44 39
-3.014164 -1.450425 -8.158640 91 48 44
-2.968838 -1.450425 -8.158640 111 45 47
-2.923513 -1.450425 -8.158640 147 39 49
-2.886364 -1.454545 -8.181818 165 39 53
-2.832861 -1.450425 -8.158640 153 43 52
-2.779661 -1.446328 -8.135593 127 48 51
-2.711485 -1.434174 -8.067227 190 42 57
-2.629834 -1.414365 -7.955801 209 39 60
-2.496000 -1.365333 -7.680000 202 56 66
-2.408377 -1.340314 -7.539267 175 136 89
-2.335917 -1.322997 -7.441861 136 193 87
-2.253807 -1.299492 -7.309645 117 201 81
-2.202020 -1.292929 -7.272727 112 204 80
-2.140000 -1.280000 -7.200000 100 183 69
-2.094763 -1.276808 -7.182045 85 156 58
-2.049751 -1.273632 -7.164179 79 149 52
-2.009950 -1.273632 -7.164179 86 166 54
-1.970149 -1.273632 -7.164179 83 159 55
-1.930348 -1.273632 -7.164179 83 162 57
-1.890547 -1.273632 -7.164179 89 171 64
-1.850746 -1.273632 -7.164179 98 186 77
-1.810945 -1.273632 -7.164179 106 196 83
-1.775561 -1.276808 -7.182045 113 200 81
-1.740000 -1.280000 -7.200000 114 204 82
-1.700000 -1.280000 -7.200000 124 201 90
-2.088050 -1.610063 -9.056603 174 152 96
-2.044164 -1.615142 -9.085174 230 77 72
-1.981191 -1.605016 -9.028214 247 55 62
-1.919003 -1.595016 -8.971963 245 51 60
-1.846154 -1.575385 -8.861539 242 47 59
-1.780488 -1.560976 -8.780488 233 43 58
-1.651163 -1.488372 -8.372093 235 41 56
-1.554930 -1.442253 -8.112676 235 39 57
-1.493036 -1.426184 -8.022285 209 47 48
-1.448468 -1.426184 -8.022285 118 89 43
-1.400000 -1.422222 -8.000000 67 112 45
-1.348066 -1.414365 -7.955801 63 118 43
-1.296703 -1.406593 -7.912088 61 119 40
-1.245902 -1.398907 -7.868853 56 118 41
-1.202186 -1.398907 -7.868853 52 117 42
-1.155313 -1.395095 -7.847412 51 115 41
-1.111717 -1.395095 -7.847412 49 112 40
-1.065217 -1.391304 -7.826087 47 109 41
-1.021739 -1.391304 -7.826087 48 109 42
-0.975610 -1.387534 -7.804878 49 108 43
-0.932249 -1.387534 -7.804878 49 108 40
-0.888889 -1.387534 -7.804878 51 109 44
-0.845528 -1.387534 -7.804878 49 106 47
-0.802168 -1.387534 -7.804878 47 104 43
-0.760870 -1.391304 -7.826087 50 115 48
-0.717391 -1.391304 -7.826087 58 119 45
-0.677596 -1.398907 -7.868853 61 119 42
-0.637363 -1.406593 -7.912088 77 104 44
-0.603352 -1.430168 -8.044693 153 56 46
-0.568182 -1.454545 -8.181818 197 37 58
-0.554217 -1.542169 -8.674699 205 39 56
-0.521739 -1.590062 -8.944099 211 40 56
-0.475000 -1.600000 -9.000000 210 43 57
-0.425000 -1.600000 -9.000000 197 61 68
-0.378549 -1.615142 -9.085174 178 131 113
-0.331210 -1.630573 -9.171974 176 153 117
-0.299320 -1.741497 -9.795918 177 151 112
-0.250000 -1.777778 -10.000000 178 150 114
-0.194444 -1.777778 -10.000000 180 150 111
-0.137457 -1.759450 -9.896907 181 150 111
-0.080000 -1.706667 -9.600000 181 150 108
-0.026578 -1.700997 -9.568107 179 152 107
0.029091 -1.861818 -10.472727 179 151 108
0.093750 -2.000000 -11.250000 178 150 108
0.473008 -1.316195 -7.403599 102 193 77
0.511509 -1.309463 -7.365729 97 187 69
0.552430 -1.309463 -7.365729 85 167 64
0.590331 -1.302799 -7.328244 84 168 65
0.629442 -1.299492 -7.309645 88 173 67
0.668354 -1.296203 -7.291139 94 180 72
0.708861 -1.296203 -7.291139 104 189 75
0.755102 -1.306122 -7.346939 112 195 81
0.795918 -1.306122 -7.346939 119 191 85
0.838875 -1.309463 -7.365729 128 133 62
1.194444 -1.777778 -10.000000 132 100 58
1.250000 -1.777778 -10.000000 135 104 65
1.305556 -1.777778 -10.000000 132 104 66
1.356401 -1.771626 -9.965398 116 92 62
1.416667 -1.777778 -10.000000 117 96 62
1.467128 -1.771626 -9.965398 125 102 67
1.522491 -1.771626 -9.965398 128 104 71
1.577855 -1.771626 -9.965398 127 101 64
1.633218 -1.771626 -9.965398 123 97 61
1.688581 -1.771626 -9.965398 124 99 64
1.743945 -1.771626 -9.965398 132 106 63
1.799308 -1.771626 -9.965398 141 115 70
1.854671 -1.771626 -9.965398 140 114 70
1.910035 -1.771626 -9.965398 136 110 69
1.958621 -1.765517 -9.931034 124 100 69
2.000000 -1.753425 -9.863013 109 88 64
2.047781 -1.747440 -9.829351 97 79 55
2.102389 -1.747440 -9.829351 88 72 53
2.156996 -1.747440 -9.829351 91 73 53
2.211604 -1.747440 -9.829351 101 79 52
2.266212 -1.747440 -9.829351 104 80 54
2.328767 -1.753425 -9.863013 109 85 57
2.375427 -1.747440 -9.829351 105 84 55
2.430034 -1.747440 -9.829351 104 85 60
2.476191 -1.741497 -9.795918 103 84 57
2.522034 -1.735593 -9.762712 114 91 56
2.576271 -1.735593 -9.762712 126 101 56
2.612795 -1.723906 -9.696970 138 115 64
2.657718 -1.718121 -9.664430 139 119 73
2.711409 -1.718121 -9.664430 127 107 66
2.765101 -1.718121 -9.664430 128 107 71
2.847458 -1.735593 -9.762712 128 107 71
2.882155 -1.723906 -9.696970 124 103 68
2.926174 -1.718121 -9.664430 115 97 69
2.969900 -1.712375 -9.632107 112 95 70
3.023411 -1.712375 -9.632107 108 92 66
3.076923 -1.712375 -9.632107 122 100 69
3.099338 -1.695364 -9.536424 134 109 71
3.162791 -1.700997 -9.568107 155 131 87
3.248322 -1.718121 -9.664430 152 127 84
3.302013 -1.718121 -9.664430 143 115 73
3.355705 -1.718121 -9.664430 143 113 75
3.386667 -1.706667 -9.600000 134 104 71
3.440000 -1.706667 -9.600000 132 101 64
3.493333 -1.706667 -9.600000 155 123 71
3.594594 -1.729730 -9.729730 151 118 69
3.661017 -1.735593 -9.762712 119 90 62
3.727891 -1.741497 -9.795918 116 92 64
3.782313 -1.741497 -9.795918 127 103 70
3.863014 -1.753425 -9.863013 142 115 77
3.931272 -1.759450 -9.896907 144 119 76
4.000000 -1.765517 -9.931034 144 120 87
4.069204 -1.771626 -9.965398 156 130 97
4.138889 -1.777778 -10.000000 158 132 93
4.194445 -1.777778 -10.000000 136 114 86
4.250000 -1.777778 -10.000000 122 103 83
4.320558 -1.783972 -10.034843 119 101 76
4.391608 -1.790210 -10.069930 116 92 65
4.447553 -1.790210 -10.069930 112 87 60
4.487805 -1.783972 -10.034843 110 84 52
4.543554 -1.783972 -10.034843 102 76 47
4.583333 -1.777778 -10.000000 95 70 43
4.638889 -1.777778 -10.000000 88 64 38
4.694445 -1.777778 -10.000000 90 62 35
4.733564 -1.771626 -9.965398 101 66 44
4.772414 -1.765517 -9.931034 127 59 67
4.761905 -1.741497 -9.795918 136 47 78
4.076294 -1.395095 -7.847412 151 128 89
4.108696 -1.391304 -7.826087 150 131 85
4.140922 -1.387534 -7.804878 130 102 85
4.172973 -1.383784 -7.783784 105 74 92
4.193548 -1.376344 -7.741935 107 80 109
4.236559 -1.376344 -7.741935 101 68 97
4.314363 -1.387534 -7.804878 120 82 97
4.357724 -1.387534 -7.804878 128 91 107
4.401084 -1.387534 -7.804878 116 73 93
4.456522 -1.391304 -7.826087 144 84 92
4.487805 -1.387534 -7.804878 161 103 98
4.580822 -1.402740 -7.890411 164 131 87
5.069069 -1.537538 -8.648648 161 137 81
5.243077 -1.575385 -8.861539 181 160 100
5.292308 -1.575385 -8.861539 215 196 146
5.391304 -1.590062 -8.944099 209 179 148
5.475000 -1.600000 -9.000000 158 100 104
5.559749 -1.610063 -9.056603 142 75 81
-2.306818 -0.750000 -4.090909 185 135 106
-2.233333 -0.733333 -4.000000 180 144 109
-2.023591 -0.692005 -3.774574 176 145 107
-1.971613 -0.681290 -3.716129 175 144 104
-1.921220 -0.670902 -3.659466 175 145 105
-4.510903 -1.644860 -8.971963 237 38 56
-4.287425 -1.580838 -8.622754 230 35 56
-4.128280 -1.539359 -8.396502 225 34 51
-4.046243 -1.526012 -8.323699 218 33 47
-3.977011 -1.517241 -8.275862 217 32 42
-3.931035 -1.517241 -8.275862 209 32 42
-3.851852 -1.504274 -8.205129 193 33 45
-3.795455 -1.500000 -8.181818 178 33 42
-3.739377 -1.495751 -8.158640 161 34 46
-3.694051 -1.495751 -8.158640 147 34 46
-3.648725 -1.495751 -8.158640 122 36 42
-3.603400 -1.495751 -8.158640 107 39 43
-3.558074 -1.495751 -8.158640 99 41 44
-3.512748 -1.495751 -8.158640 95 41 41
-3.467422 -1.495751 -8.158640 95 38 42
-3.422096 -1.495751 -8.158640 102 35 42
-3.376770 -1.495751 -8.158640 97 38 39
-3.340909 -1.500000 -8.181818 92 41 40
-3.295455 -1.500000 -8.181818 87 44 42
-3.250000 -1.500000 -8.181818 83 44 40
-3.195467 -1.495751 -8.158640 84 43 37
-3.150142 -1.495751 -8.158640 81 45 38
-3.104816 -1.495751 -8.158640 80 48 44
-3.059490 -1.495751 -8.158640 81 51 46
-3.014164 -1.495751 -8.158640 84 51 48
-2.968838 -1.495751 -8.158640 108 47 47
-2.923513 -1.495751 -8.158640 148 39 46
-2.878187 -1.495751 -8.158640 166 39 49
-2.832861 -1.495751 -8.158640 139 43 53
-2.771831 -1.487324 -8.112676 125 50 55
-2.726761 -1.487324 -8.112676 190 42 52
-2.651811 -1.470752 -8.022285 208 39 56
-2.450262 -1.382199 -7.539267 200 57 58
-2.340967 -1.343511 -7.328244 159 155 76
-2.294416 -1.340101 -7.309645 126 205 84
-2.242424 -1.333333 -7.272727 117 206 83
-2.180000 -1.320000 -7.200000 111 203 76
-2.134663 -1.316708 -7.182045 98 184 66
-2.079208 -1.306931 -7.128713 79 147 54
-2.034568 -1.303704 -7.111111 82 156 60
-1.995062 -1.303704 -7.111111 88 173 63
-1.965261 -1.310174 -7.146402 84 161 58
-1.930348 -1.313433 -7.164179 82 158 57
-1.890547 -1.313433 -7.164179 87 161 65
-1.850746 -1.313433 -7.164179 98 182 76
-1.810945 -1.313433 -7.164179 109 199 78
-1.775561 -1.316708 -7.182045 112 200 79
-1.735661 -1.316708 -7.182045 113 202 83
-1.700000 -1.320000 -7.200000 119 205 87
-2.062112 -1.639752 -8.944099 163 144 75
-2.025000 -1.650000 -9.000000 234 66 60
-1.968847 -1.644860 -8.971963 248 52 61
-1.895385 -1.624615 -8.861539 246 49 59
-1.840491 -1.619632 -8.834355 233 46 61
-1.753754 -1.585586 -8.648648 221 43 59
-1.627507 -1.512894 -8.252149 229 39 55
-1.541899 -1.474860 -8.044693 232 37 56
-1.488889 -1.466667 -8.000000 180 67 55
-1.436464 -1.458564 -7.955801 92 109 48
-1.388430 -1.454545 -7.933884 65 114 45
-1.340659 -1.450549 -7.912088 61 118 42
-1.289618 -1.442623 -7.868853 57 119 43
-1.245902 -1.442623 -7.868853 52 118 43
-1.198910 -1.438692 -7.847412 50 115 44
-1.155313 -1.438692 -7.847412 50 113 43
-1.108696 -1.434783 -7.826087 50 111 41
-1.065217 -1.434783 -7.826087 50 110 43
-1.021739 -1.434783 -7.826087 49 108 45
-0.978261 -1.434783 -7.826087 48 107 46
-0.932249 -1.430894 -7.804878 48 107 41
-0.888889 -1.430894 -7.804878 49 108 42
-0.845528 -1.430894 -7.804878 49 103 42
-0.802168 -1.430894 -7.804878 48 106 42
-0.760870 -1.434783 -7.826087 51 116 45
-0.717391 -1.434783 -7.826087 57 119 44
-0.675749 -1.438692 -7.847412 60 121 41
-0.637363 -1.450549 -7.912088 74 107 43
-0.603352 -1.474860 -8.044693 153 59 47
-0.568182 -1.500000 -8.181818 202 38 51
-0.554217 -1.590361 -8.674699 206 38 54
-0.521739 -1.639752 -8.944099 209 39 58
-0.475000 -1.650000 -9.000000 208 42 59
-0.429022 -1.665615 -9.085174 200 53 62
-0.379747 -1.670886 -9.113924 180 119 108
-0.335484 -1.703226 -9.290322 169 154 126
-0.299320 -1.795918 -9.795918 172 154 121
-0.246575 -1.808219 -9.863013 174 153 118
-0.192440 -1.814433 -9.896907 178 151 113
-0.132890 -1.754153 -9.568107 180 149 111
-0.079470 -1.748344 -9.536424 179 149 109
-0.026490 -1.748344 -9.536424 177 150 109
0.026667 -1.760000 -9.600000 178 150 112
0.473008 -1.357327 -7.403599 98 186 72
0.514139 -1.357327 -7.403599 93 181 65
0.552430 -1.350384 -7.365729 83 167 62
0.593350 -1.350384 -7.365729 84 167 65
0.629442 -1.340101 -7.309645 84 166 64
0.668354 -1.336709 -7.291139 93 175 68
0.708861 -1.336709 -7.291139 103 188 78
0.757033 -1.350384 -7.365729 109 195 87
0.797954 -1.350384 -7.365729 120 196 88
0.838875 -1.350384 -7.365729 123 149 68
1.194444 -1.833333 -10.000000 136 109 65
1.250000 -1.833333 -10.000000 135 107 67
1.305556 -1.833333 -10.000000 132 104 64
1.356401 -1.826990 -9.965398 118 93 61
1.411765 -1.826990 -9.965398 119 96 65
1.467128 -1.826990 -9.965398 124 102 69
1.522491 -1.826990 -9.965398 130 108 70
1.577855 -1.826990 -9.965398 129 104 64
1.633218 -1.826990 -9.965398 121 97 60
1.688581 -1.826990 -9.965398 125 97 65
1.737931 -1.820690 -9.931034 128 102 62
1.786942 -1.814433 -9.896907 148 120 75
1.841924 -1.814433 -9.896907 157 129 78
1.896907 -1.814433 -9.896907 153 125 76
1.945205 -1.808219 -9.863013 141 113 79
1.993174 -1.802048 -9.829351 134 107 70
2.047781 -1.802048 -9.829351 135 107 61
2.102389 -1.802048 -9.829351 132 102 60
2.149660 -1.795918 -9.795918 138 107 65
2.181818 -1.777778 -9.696970 150 122 73
2.250847 -1.789831 -9.762712 146 119 71
2.320819 -1.802048 -9.829351 148 119 70
2.375427 -1.802048 -9.829351 148 120 69
2.430034 -1.802048 -9.829351 146 119 74
2.467797 -1.789831 -9.762712 136 109 64
2.505050 -1.777778 -9.696970 130 103 58
2.550336 -1.771812 -9.664430 127 101 57
2.586667 -1.760000 -9.600000 128 102 60
2.640000 -1.760000 -9.600000 123 102 62
2.684385 -1.754153 -9.568107 117 96 63
2.737541 -1.754153 -9.568107 120 96 64
2.800000 -1.760000 -9.600000 128 104 64
2.862876 -1.765886 -9.632107 133 110 68
2.916388 -1.765886 -9.632107 121 105 68
2.969900 -1.765886 -9.632107 116 100 68
3.013333 -1.760000 -9.600000 110 93 70
3.046358 -1.748344 -9.536424 119 97 69
3.089109 -1.742574 -9.504951 125 102 66
3.141914 -1.742574 -9.504951 141 119 81
3.215947 -1.754153 -9.568107 133 112 77
3.280000 -1.760000 -9.600000 127 105 64
3.333333 -1.760000 -9.600000 125 102 63
3.364239 -1.748344 -9.536424 122 96 60
3.417218 -1.748344 -9.536424 133 103 59
3.481728 -1.754153 -9.568107 146 117 68
3.546667 -1.760000 -9.600000 136 109 65
3.636364 -1.777778 -9.696970 124 99 62
3.702703 -1.783784 -9.729730 138 111 68
3.756757 -1.783784 -9.729730 152 123 74
3.836735 -1.795918 -9.795918 155 126 81
3.931272 -1.814433 -9.896907 156 129 84
3.986254 -1.814433 -9.896907 154 127 91
4.055172 -1.820690 -9.931034 159 130 96
4.124568 -1.826990 -9.965398 157 129 91
4.194445 -1.833333 -10.000000 136 115 87
4.250000 -1.833333 -10.000000 116 98 79
4.320558 -1.839721 -10.034843 114 95 68
4.391608 -1.846154 -10.069930 111 89 57
4.447553 -1.846154 -10.069930 110 86 57
4.487805 -1.839721 -10.034843 110 82 50
4.543554 -1.839721 -10.034843 105 78 43
4.583333 -1.833333 -10.000000 95 70 41
4.638889 -1.833333 -10.000000 92 65 39
4.678201 -1.826990 -9.965398 92 63 41
4.733564 -1.826990 -9.965398 102 63 47
4.788928 -1.826990 -9.965398 129 55 72
4.043716 -1.442623 -7.868853 145 105 104
4.065217 -1.434783 -7.826087 152 130 88
4.108696 -1.434783 -7.826087 154 132 88
4.152174 -1.434783 -7.826087 132 97 86
4.184282 -1.430894 -7.804878 109 72 95
4.204852 -1.423181 -7.762803 109 79 109
4.247978 -1.423181 -7.762803 104 67 100
4.314363 -1.430894 -7.804878 123 83 99
4.369565 -1.434783 -7.826087 131 93 109
4.413043 -1.434783 -7.826087 118 74 94
4.456522 -1.434783 -7.826087 147 86 97
4.512261 -1.438692 -7.847412 168 107 107
4.593407 -1.450549 -7.912088 168 134 96
5.023809 -1.571429 -8.571428 162 139 83
5.117117 -1.585586 -8.648648 179 159 97
5.196374 -1.595166 -8.700907 213 194 138
5.341538 -1.624615 -8.861539 199 164 141
5.457944 -1.644860 -8.971963 159 94 99
5.525000 -1.650000 -9.000000 154 85 89
-2.224066 -0.752420 -3.983402 181 145 110
-1.971613 -0.701935 -3.716129 179 146 107
-1.351206 -0.486148 -2.573727 181 147 110
-1.336908 -0.486148 -2.573727 185 139 104
-4.539185 -1.705329 -9.028214 234 36 55
-4.287425 -1.628742 -8.622754 228 33 54
-4.128280 -1.586006 -8.396502 223 33 46
-4.022988 -1.563218 -8.275862 218 32 44
-3.977011 -1.563218 -8.275862 212 32 42
-3.908571 -1.554286 -8.228572 206 31 44
-3.840909 -1.545455 -8.181818 182 34 46
-3.774011 -1.536723 -8.135593 165 35 45
-3.728814 -1.536723 -8.135593 159 33 49
-3.694051 -1.541077 -8.158640 137 34 48
-3.648725 -1.541077 -8.158640 122 37 43
-3.603400 -1.541077 -8.158640 114 38 42
-3.558074 -1.541077 -8.158640 108 40 41
-3.512748 -1.541077 -8.158640 105 40 39
-3.467422 -1.541077 -8.158640 109 36 40
-3.422096 -1.541077 -8.158640 104 37 40
-3.376770 -1.541077 -8.158640 94 41 41
-3.331445 -1.541077 -8.158640 92 42 42
-3.295455 -1.545455 -8.181818 93 42 44
-3.250000 -1.545455 -8.181818 91 41 43
-3.195467 -1.541077 -8.158640 90 41 38
-3.150142 -1.541077 -8.158640 84 43 35
-3.104816 -1.541077 -8.158640 78 46 39
-3.059490 -1.541077 -8.158640 75 50 43
-3.005650 -1.536723 -8.135593 77 53 46
-2.960452 -1.536723 -8.135593 102 50 47
-2.923513 -1.541077 -8.158640 143 40 46
-2.878187 -1.541077 -8.158640 158 38 48
-2.816901 -1.532394 -8.112676 132 44 56
-2.787535 -1.541077 -8.158640 122 50 57
-2.345865 -1.363409 -7.218045 178 100 61
-2.305764 -1.363409 -7.218045 139 192 80
-2.271357 -1.366834 -7.236181 119 205 81
-2.225564 -1.363409 -7.218045 116 205 80
-2.174564 -1.356609 -7.182045 108 197 73
-2.118812 -1.346535 -7.128713 99 188 66
-2.074074 -1.343210 -7.111111 74 145 50
-2.034568 -1.343210 -7.111111 82 162 60
-1.995062 -1.343210 -7.111111 90 179 64
-1.955556 -1.343210 -7.111111 83 161 59
-1.925558 -1.349876 -7.146402 83 158 58
-1.890547 -1.353234 -7.164179 85 158 61
-1.850746 -1.353234 -7.164179 99 179 72
-1.815461 -1.356609 -7.182045 109 198 78
-1.775561 -1.356609 -7.182045 112 203 80
-1.735661 -1.356609 -7.182045 116 205 84
-1.700000 -1.360000 -7.200000 119 205 88
-2.036810 -1.668712 -8.834355 145 164 74
-2.012422 -1.689441 -8.944099 221 74 56
-1.938650 -1.668712 -8.834355 246 50 64
-1.878049 -1.658537 -8.780488 246 46 61
-1.801802 -1.633634 -8.648648 226 44 61
-1.722714 -1.604720 -8.495575 203 42 60
-1.591036 -1.523810 -8.067227 206 41 55
-1.533333 -1.511111 -8.000000 208 45 50
-1.480663 -1.502762 -7.955801 148 96 66
-1.432507 -1.498623 -7.933884 101 129 70
-1.384615 -1.494506 -7.912088 73 121 51
-1.336986 -1.490411 -7.890411 60 119 42
-1.286103 -1.482289 -7.847412 57 120 41
-1.242507 -1.482289 -7.847412 53 120 39
-1.195652 -1.478261 -7.826087 50 116 43
-1.152174 -1.478261 -7.826087 50 112 45
-1.108696 -1.478261 -7.826087 49 110 40
-1.065217 -1.478261 -7.826087 49 109 40
-1.021739 -1.478261 -7.826087 49 108 41
-0.978261 -1.478261 -7.826087 47 107 46
-0.934783 -1.478261 -7.826087 48 107 44
-0.888889 -1.474255 -7.804878 49 106 41
-0.845528 -1.474255 -7.804878 48 98 38
-0.802168 -1.474255 -7.804878 50 106 43
-0.760870 -1.478261 -7.826087 52 115 46
-0.717391 -1.478261 -7.826087 55 119 45
-0.675749 -1.482289 -7.847412 59 121 43
-0.637363 -1.494506 -7.912088 71 109 44
-0.603352 -1.519553 -8.044693 149 64 47
-0.568182 -1.545455 -8.181818 193 38 52
-0.547619 -1.619048 -8.571428 200 38 55
-0.520124 -1.684211 -8.916409 203 40 56
-0.475000 -1.700000 -9.000000 208 42 55
-0.429022 -1.716088 -9.085174 204 47 57
-0.379747 -1.721519 -9.113924 187 102 96
-0.335484 -1.754839 -9.290322 171 151 126
-0.299320 -1.850340 -9.795918 167 154 127
-0.244898 -1.850340 -9.795918 170 153 126
-0.187919 -1.825503 -9.664430 174 152 120
-0.132450 -1.801324 -9.536424 178 151 115
-0.079470 -1.801324 -9.536424 179 151 108
-0.026230 -1.783607 -9.442623 178 149 110
0.026403 -1.795380 -9.504951 175 149 108
0.432990 -1.402062 -7.422680 104 192 75
0.474227 -1.402062 -7.422680 97 186 73
0.514139 -1.398458 -7.403599 92 181 68
0.555270 -1.398458 -7.403599 88 175 67
0.593350 -1.391304 -7.365729 86 173 64
0.631043 -1.384224 -7.328244 87 172 66
0.670051 -1.380711 -7.309645 94 181 69
0.710660 -1.380711 -7.309645 99 189 73
0.757033 -1.391304 -7.365729 109 192 83
0.800000 -1.394872 -7.384615 118 197 85
0.841026 -1.394872 -7.384615 120 164 73
1.190311 -1.882353 -9.965398 136 117 70
1.250000 -1.888889 -10.000000 132 103 66
1.305556 -1.888889 -10.000000 119 91 59
1.356401 -1.882353 -9.965398 121 96 62
1.411765 -1.882353 -9.965398 126 101 67
1.462069 -1.875862 -9.931034 133 109 73
1.517241 -1.875862 -9.931034 141 115 75
1.577855 -1.882353 -9.965398 138 110 67
1.633218 -1.882353 -9.965398 130 104 63
1.682759 -1.875862 -9.931034 127 101 59
1.731959 -1.869416 -9.896907 122 98 58
1.780822 -1.863014 -9.863013 132 105 63
1.835616 -1.863014 -9.863013 144 116 67
1.883959 -1.856655 -9.829351 147 119 72
1.938567 -1.856655 -9.829351 141 113 71
1.993174 -1.856655 -9.829351 136 108 67
2.040816 -1.850340 -9.795918 135 105 63
2.088135 -1.844068 -9.762712 136 105 61
2.127946 -1.831650 -9.696970 148 120 71
2.160000 -1.813333 -9.600000 159 132 83
2.220736 -1.819398 -9.632107 154 126 75
2.305085 -1.844068 -9.762712 153 126 70
2.367347 -1.850340 -9.795918 146 118 66
2.421769 -1.850340 -9.795918 143 117 69
2.459460 -1.837838 -9.729730 139 112 65
2.496644 -1.825503 -9.664430 125 97 59
2.533333 -1.813333 -9.600000 119 92 55
2.578073 -1.807309 -9.568107 123 97 59
2.622517 -1.801324 -9.536424 121 98 64
2.666667 -1.795380 -9.504951 110 89 60
2.728477 -1.801324 -9.536424 111 90 65
2.781457 -1.801324 -9.536424 135 112 70
2.843854 -1.807309 -9.568107 153 131 79
2.897010 -1.807309 -9.568107 143 124 76
2.950166 -1.807309 -9.568107 127 107 68
3.003322 -1.807309 -9.568107 117 95 68
3.036304 -1.795380 -9.504951 130 109 72
3.078947 -1.789474 -9.473684 134 112 69
3.131579 -1.789474 -9.473684 123 102 59
3.194720 -1.795380 -9.504951 122 103 59
3.269103 -1.807309 -9.568107 122 101 60
3.311258 -1.801324 -9.536424 123 101 62
3.353135 -1.795380 -9.504951 125 100 63
3.405941 -1.795380 -9.504951 133 103 63
3.458746 -1.795380 -9.504951 126 98 63
3.534884 -1.807309 -9.568107 115 90 60
3.600000 -1.813333 -9.600000 139 111 70
3.665552 -1.819398 -9.632107 164 133 78
3.719064 -1.819398 -9.632107 171 139 83
3.810811 -1.837838 -9.729730 170 140 90
3.904437 -1.856655 -9.829351 153 126 89
3.986254 -1.869416 -9.896907 156 128 94
4.055172 -1.875862 -9.931034 159 129 95
4.124568 -1.882353 -9.965398 152 125 93
4.194445 -1.888889 -10.000000 132 111 88
4.250000 -1.888889 -10.000000 121 103 80
4.305555 -1.888889 -10.000000 114 92 69
4.376307 -1.895470 -10.034843 110 86 54
4.432056 -1.895470 -10.034843 108 84 55
4.487805 -1.895470 -10.034843 106 78 48
4.527778 -1.888889 -10.000000 105 77 42
4.583333 -1.888889 -10.000000 95 71 43
4.622838 -1.882353 -9.965398 96 69 39
4.678201 -1.882353 -9.965398 94 67 42
4.733564 -1.882353 -9.965398 108 64 49
4.788928 -1.882353 -9.965398 134 53 73
4.032698 -1.482289 -7.847412 146 111 99
4.065217 -1.478261 -7.826087 152 130 90
4.108696 -1.478261 -7.826087 155 133 94
4.140922 -1.474255 -7.804878 133 96 94
4.184282 -1.474255 -7.804878 111 74 99
4.216216 -1.470270 -7.783784 113 80 111
4.259459 -1.470270 -7.783784 107 68 103
4.326087 -1.478261 -7.826087 123 84 102
4.369565 -1.478261 -7.826087 135 97 113
4.413043 -1.478261 -7.826087 123 80 102
4.468665 -1.482289 -7.847412 144 89 93
4.549450 -1.494506 -7.912088 168 109 99
4.670391 -1.519553 -8.044693 167 132 91
4.994083 -1.609468 -8.520710 163 138 84
5.071429 -1.619048 -8.571428 177 154 94
5.165165 -1.633634 -8.648648 212 191 137
5.244713 -1.643505 -8.700907 191 149 137
5.424149 -1.684211 -8.916409 161 95 99
5.525000 -1.700000 -9.000000 161 93 93
-2.023591 -0.733945 -3.774574 181 147 110
-1.979275 -0.725389 -3.730570 182 149 112
-1.352415 -0.500894 -2.576029 181 147 110
-4.539185 -1.755486 -9.028214 233 33 54
-4.287425 -1.676647 -8.622754 226 32 51
-4.116279 -1.627907 -8.372093 221 31 49
-4.022988 -1.609195 -8.275862 216 30 47
-3.965616 -1.604585 -8.252149 205 31 42
-3.886364 -1.590909 -8.181818 188 33 44
-3.819209 -1.581921 -8.135593 162 36 47
-3.763380 -1.577465 -8.112676 165 36 46
-3.718310 -1.577465 -8.112676 161 34 48
-3.683616 -1.581921 -8.135593 123 38 45
-3.648725 -1.586402 -8.158640 125 39 43
-3.613636 -1.590909 -8.181818 121 39 42
-3.568182 -1.590909 -8.181818 131 37 43
-3.512748 -1.586402 -8.158640 138 35 43
-3.467422 -1.586402 -8.158640 133 35 41
-3.422096 -1.586402 -8.158640 116 38 40
-3.376770 -1.586402 -8.158640 116 37 43
-3.331445 -1.586402 -8.158640 117 35 41
-3.286119 -1.586402 -8.158640 110 35 40
-3.240793 -1.586402 -8.158640 101 38 39
-3.195467 -1.586402 -8.158640 95 40 38
-3.150142 -1.586402 -8.158640 91 42 38
-3.104816 -1.586402 -8.158640 82 48 40
-3.050848 -1.581921 -8.135593 74 55 45
-3.005650 -1.581921 -8.135593 77 56 47
-2.960452 -1.581921 -8.135593 101 52 48
-2.915254 -1.581921 -8.135593 143 40 45
-2.861972 -1.577465 -8.112676 155 39 47
-2.816901 -1.577465 -8.112676 137 45 52
-2.771831 -1.577465 -8.112676 135 47 57
-2.380000 -1.400000 -7.200000 193 62 56
-2.340000 -1.400000 -7.200000 153 163 73
-2.300000 -1.400000 -7.200000 128 209 80
-2.265664 -1.403509 -7.218045 117 206 79
-2.220000 -1.400000 -7.200000 110 198 74
-2.169154 -1.393035 -7.164179 105 196 74
-2.113580 -1.382716 -7.111111 96 189 69
-2.074074 -1.382716 -7.111111 75 153 56
-2.029557 -1.379310 -7.093596 80 158 61
-1.990148 -1.379310 -7.093596 89 177 63
-1.955556 -1.382716 -7.111111 87 170 62
-1.925558 -1.389578 -7.146402 86 163 61
-1.890547 -1.393035 -7.164179 88 161 63
-1.855362 -1.396509 -7.182045 97 176 72
-1.815461 -1.396509 -7.182045 107 195 80
-1.775561 -1.396509 -7.182045 111 202 81
-1.735661 -1.396509 -7.182045 111 199 81
-1.700000 -1.400000 -7.200000 118 206 88
-1.964497 -1.656805 -8.520710 130 187 76
-1.987730 -1.717791 -8.834355 202 93 57
-1.875371 -1.661721 -8.545994 245 50 61
-1.827893 -1.661721 -8.545994 244 45 60
-1.759531 -1.642229 -8.445747 227 43 62
-1.663818 -1.595442 -8.205129 198 43 60
-1.586592 -1.564246 -8.044693 193 42 58
-1.524862 -1.546961 -7.955801 168 64 53
-1.476584 -1.542700 -7.933884 121 121 75
-1.428571 -1.538462 -7.912088 106 134 78
-1.377049 -1.530055 -7.868853 100 138 77
-1.329700 -1.525886 -7.847412 91 138 73
-1.282609 -1.521739 -7.826087 59 121 49
-1.239130 -1.521739 -7.826087 53 118 43
-1.195652 -1.521739 -7.826087 52 117 39
-1.152174 -1.521739 -7.826087 50 115 41
-1.108696 -1.521739 -7.826087 48 111 42
-1.065217 -1.521739 -7.826087 47 108 40
-1.021739 -1.521739 -7.826087 48 107 40
-0.978261 -1.521739 -7.826087 48 106 43
-0.934783 -1.521739 -7.826087 49 107 42
-0.888889 -1.517615 -7.804878 49 104 39
-0.847826 -1.521739 -7.826087 47 98 37
-0.804348 -1.521739 -7.826087 50 110 43
-0.760870 -1.521739 -7.826087 51 117 43
-0.719346 -1.525886 -7.847412 55 121 38
-0.677596 -1.530055 -7.868853 57 121 37
-0.639118 -1.542700 -7.933884 68 113 37
-0.603352 -1.564246 -8.044693 145 70 46
-0.566572 -1.586402 -8.158640 190 39 46
-0.533333 -1.623188 -8.347826 195 39 53
-0.518519 -1.728395 -8.888889 200 41 56
-0.475000 -1.750000 -9.000000 206 43 56
-0.426332 -1.755486 -9.028214 207 43 58
-0.379747 -1.772152 -9.113924 193 87 82
-0.331210 -1.783440 -9.171974 180 146 115
-0.286645 -1.824104 -9.381107 171 153 124
-0.241611 -1.879195 -9.664430 168 153 129
-0.186667 -1.866667 -9.600000 171 153 123
-0.132450 -1.854305 -9.536424 174 153 123
-0.078689 -1.836066 -9.442623 179 153 113
-0.026144 -1.830065 -9.411765 181 151 111
0.152174 -1.521739 -7.826087 175 151 110
0.193029 -1.501341 -7.721179 172 154 107
0.232190 -1.477573 -7.598945 146 174 97
0.271540 -1.462141 -7.519582 127 211 91
0.310881 -1.450777 -7.461140 123 215 89
0.351421 -1.447028 -7.441861 117 208 84
0.392765 -1.447028 -7.441861 110 201 81
0.434109 -1.447028 -7.441861 105 197 78
0.474227 -1.443299 -7.422680 95 183 67
0.515464 -1.443299 -7.422680 90 174 60
0.555270 -1.439589 -7.403599 91 175 62
0.590331 -1.424936 -7.328244 89 176 64
0.631043 -1.424936 -7.328244 89 177 62
0.670051 -1.421320 -7.309645 95 182 70
0.712468 -1.424936 -7.328244 102 189 75
0.758974 -1.435897 -7.384615 109 191 78
0.800000 -1.435897 -7.384615 116 196 84
0.841026 -1.435897 -7.384615 117 178 79
0.882051 -1.435897 -7.384615 120 113 59
1.245675 -1.937716 -9.965398 126 93 60
1.301038 -1.937716 -9.965398 121 90 58
1.351724 -1.931034 -9.931034 128 101 66
1.406897 -1.931034 -9.931034 131 104 67
1.457045 -1.924399 -9.896907 143 118 80
1.512028 -1.924399 -9.896907 152 125 82
1.567010 -1.924399 -9.896907 143 116 69
1.621993 -1.924399 -9.896907 142 114 67
1.671233 -1.917808 -9.863013 142 114 64
1.726027 -1.917808 -9.863013 134 108 63
1.774744 -1.911263 -9.829351 121 97 60
1.823129 -1.904762 -9.795918 120 94 59
1.877551 -1.904762 -9.795918 129 103 58
1.931973 -1.904762 -9.795918 137 110 68
1.986395 -1.904762 -9.795918 135 106 72
2.020202 -1.885522 -9.696970 144 113 75
2.074074 -1.885522 -9.696970 156 124 82
2.099668 -1.860465 -9.568107 160 132 86
2.160000 -1.866667 -9.600000 163 133 91
2.213333 -1.866667 -9.600000 160 128 85
2.281879 -1.879195 -9.664430 154 126 77
2.359322 -1.898305 -9.762712 148 121 74
2.413559 -1.898305 -9.762712 143 116 69
2.459460 -1.891892 -9.729730 140 112 70
2.496644 -1.879195 -9.664430 135 109 71
2.533333 -1.866667 -9.600000 131 105 66
2.561056 -1.848185 -9.504951 128 103 61
2.613861 -1.848185 -9.504951 122 98 61
2.657895 -1.842105 -9.473684 115 93 61
2.710526 -1.842105 -9.473684 109 88 62
2.763158 -1.842105 -9.473684 123 100 68
2.825083 -1.848185 -9.504951 140 117 72
2.877888 -1.848185 -9.504951 139 117 69
2.950166 -1.860465 -9.568107 129 105 62
2.983498 -1.848185 -9.504951 121 99 58
3.036304 -1.848185 -9.504951 127 103 62
3.078947 -1.842105 -9.473684 139 111 74
3.131579 -1.842105 -9.473684 133 107 65
3.194720 -1.848185 -9.504951 139 113 66
3.247525 -1.848185 -9.504951 126 102 61
3.300330 -1.848185 -9.504951 117 94 61
3.353135 -1.848185 -9.504951 119 93 62
3.405941 -1.848185 -9.504951 129 102 65
3.458746 -1.848185 -9.504951 133 104 69
3.511551 -1.848185 -9.504951 120 93 58
3.576159 -1.854305 -9.536424 146 116 67
3.641196 -1.860465 -9.568107 170 138 81
3.694352 -1.860465 -9.568107 177 145 90
3.760000 -1.866667 -9.600000 170 142 92
3.891156 -1.904762 -9.795918 161 136 97
3.972603 -1.917808 -9.863013 162 135 97
4.055172 -1.931034 -9.931034 164 134 98
4.124568 -1.937716 -9.965398 148 122 95
4.179931 -1.937716 -9.965398 134 110 88
4.235294 -1.937716 -9.965398 117 97 77
4.305555 -1.944444 -10.000000 108 86 66
4.361111 -1.944444 -10.000000 108 85 57
4.416667 -1.944444 -10.000000 103 80 51
4.472222 -1.944444 -10.000000 99 74 46
4.512111 -1.937716 -9.965398 100 73 43
4.567474 -1.937716 -9.965398 94 69 41
4.622838 -1.937716 -9.965398 97 69 39
4.678201 -1.937716 -9.965398 96 67 40
4.733564 -1.937716 -9.965398 114 65 53
4.839161 -1.958042 -10.069930 140 54 82
4.021739 -1.521739 -7.826087 151 119 93
4.043243 -1.513514 -7.783784 152 131 87
4.097561 -1.517615 -7.804878 156 132 93
4.140922 -1.517615 -7.804878 131 92 95
4.184282 -1.517615 -7.804878 109 75 102
4.227642 -1.517615 -7.804878 114 85 116
4.282609 -1.521739 -7.826087 109 71 103
4.326087 -1.521739 -7.826087 123 83 101
4.369565 -1.521739 -7.826087 137 97 113
4.413043 -1.521739 -7.826087 123 78 100
4.468665 -1.525886 -7.847412 145 90 94
4.549450 -1.538462 -7.912088 172 115 101
4.696629 -1.573034 -8.089888 169 134 92
4.964706 -1.647059 -8.470589 164 137 89
5.056380 -1.661721 -8.545994 178 153 96
5.119048 -1.666667 -8.571428 210 188 141
5.197605 -1.676647 -8.622754 183 133 125
5.293051 -1.691843 -8.700907 164 96 99
-4.287425 -1.724551 -8.622754 224 32 46
-4.092485 -1.664740 -8.323699 208 33 44
-4.022988 -1.655172 -8.275862 191 32 46
-3.965616 -1.650430 -8.252149 175 35 45
-3.875354 -1.631728 -8.158640 163 37 47
-3.808451 -1.622535 -8.112676 173 34 45
-3.763380 -1.622535 -8.112676 185 34 46
-3.718310 -1.622535 -8.112676 179 34 47
-3.683616 -1.627119 -8.135593 141 36 45
-3.659091 -1.636364 -8.181818 136 37 45
-3.613636 -1.636364 -8.181818 141 37 41
-3.568182 -1.636364 -8.181818 155 33 41
-3.522727 -1.636364 -8.181818 161 32 41
-3.477273 -1.636364 -8.181818 156 32 41
-3.422096 -1.631728 -8.158640 136 35 42
-3.376770 -1.631728 -8.158640 127 37 40
-3.331445 -1.631728 -8.158640 135 34 38
-3.286119 -1.631728 -8.158640 130 33 38
-3.240793 -1.631728 -8.158640 107 37 35
-3.195467 -1.631728 -8.158640 90 40 37
-3.141243 -1.627119 -8.135593 87 44 46
-3.096045 -1.627119 -8.135593 82 50 49
-3.050848 -1.627119 -8.135593 80 55 49
-3.005650 -1.627119 -8.135593 82 54 47
-2.960452 -1.627119 -8.135593 105 45 41
-2.907042 -1.622535 -8.112676 142 39 40
-2.853933 -1.617977 -8.089888 143 41 42
-2.801121 -1.613445 -8.067227 129 46 50
-2.748603 -1.608939 -8.044693 151 45 55
-2.438287 -1.450882 -7.254408 197 44 50
-2.385965 -1.443609 -7.218045 171 115 60
-2.340000 -1.440000 -7.200000 134 198 82
-2.300000 -1.440000 -7.200000 123 209 84
-2.260000 -1.440000 -7.200000 117 208 83
-2.208955 -1.432836 -7.164179 110 199 75
-2.158416 -1.425743 -7.128713 101 188 68
-2.113580 -1.422222 -7.111111 98 188 67
-2.063882 -1.415233 -7.076167 87 174 65
-2.024570 -1.415233 -7.076167 77 151 60
-1.990148 -1.418719 -7.093596 81 159 62
-1.955556 -1.422222 -7.111111 85 172 63
-1.925558 -1.429280 -7.146402 86 164 59
-1.890547 -1.432836 -7.164179 89 162 61
-1.850746 -1.432836 -7.164179 98 178 71
-1.815461 -1.436409 -7.182045 107 194 79
-1.775561 -1.436409 -7.182045 111 201 79
-1.735661 -1.436409 -7.182045 112 201 80
-1.700000 -1.440000 -7.200000 117 206 84
-1.870422 -1.622535 -8.112676 120 200 82
-1.917160 -1.704142 -8.520710 177 120 61
-1.805714 -1.645714 -8.228572 241 51 58
-1.765043 -1.650430 -8.252149 241 43 64
-1.709402 -1.641026 -8.205129 225 42 65
-1.649718 -1.627119 -8.135593 206 42 62
-1.586592 -1.608939 -8.044693 190 44 58
-1.524862 -1.591160 -7.955801 142 93 66
-1.476584 -1.586777 -7.933884 120 140 91
-1.420765 -1.573771 -7.868853 96 131 73
-1.373297 -1.569482 -7.847412 115 149 94
-1.326087 -1.565217 -7.826087 109 148 92
-1.282609 -1.565217 -7.826087 61 122 51
-1.239130 -1.565217 -7.826087 52 119 47
-1.195652 -1.565217 -7.826087 55 118 41
-1.152174 -1.565217 -7.826087 53 114 40
-1.108696 -1.565217 -7.826087 50 110 41
-1.065217 -1.565217 -7.826087 48 108 40
-1.021739 -1.565217 -7.826087 49 107 38
-0.978261 -1.565217 -7.826087 49 107 39
-0.934783 -1.565217 -7.826087 49 108 40
-0.888889 -1.560976 -7.804878 48 100 36
-0.847826 -1.565217 -7.826087 46 98 36
-0.804348 -1.565217 -7.826087 49 113 42
-0.760870 -1.565217 -7.826087 51 117 40
-0.721311 -1.573771 -7.868853 56 121 36
-0.679452 -1.578082 -7.890411 57 121 36
-0.639118 -1.586777 -7.933884 67 117 38
-0.603352 -1.608939 -8.044693 145 78 47
-0.564972 -1.627119 -8.135593 199 39 49
-0.528736 -1.655172 -8.275862 203 38 53
-0.518519 -1.777778 -8.888889 200 40 54
-0.473520 -1.794392 -8.971963 207 41 53
-0.425000 -1.800000 -9.000000 209 42 55
-0.376176 -1.805643 -9.028214 197 74 70
-0.329114 -1.822785 -9.113924 186 141 110
-0.280255 -1.834395 -9.171974 179 152 115
-0.234528 -1.876222 -9.381107 173 154 122
-0.183607 -1.888525 -9.442623 169 154 124
-0.131148 -1.888525 -9.442623 170 153 124
-0.078689 -1.888525 -9.442623 173 153 120
0.108696 -1.565217 -7.826087 178 150 110
0.150134 -1.544236 -7.721179 178 151 112
0.189974 -1.519789 -7.598945 163 169 107
0.229765 -1.503917 -7.519582 136 205 97
0.270833 -1.500000 -7.500000 122 215 88
0.310881 -1.492228 -7.461140 119 212 84
0.351421 -1.488372 -7.441861 113 205 82
0.392765 -1.488372 -7.441861 108 198 80
0.434109 -1.488372 -7.441861 102 193 74
0.475452 -1.488372 -7.441861 97 187 66
0.515464 -1.484536 -7.422680 94 180 63
0.555270 -1.480720 -7.403599 92 176 63
0.594872 -1.476923 -7.384615 90 177 66
0.631043 -1.465649 -7.328244 89 176 65
0.671756 -1.465649 -7.328244 93 180 71
0.716113 -1.473146 -7.365729 101 186 79
0.758974 -1.476923 -7.384615 111 194 79
0.800000 -1.476923 -7.384615 117 197 86
0.841026 -1.476923 -7.384615 117 190 84
0.886598 -1.484536 -7.422680 112 118 52
1.224490 -1.959184 -9.795918 122 89 51
1.292096 -1.979381 -9.896907 122 92 56
1.347079 -1.979381 -9.896907 129 103 64
1.402062 -1.979381 -9.896907 131 104 64
1.457045 -1.979381 -9.896907 139 113 70
1.512028 -1.979381 -9.896907 142 117 69
1.561644 -1.972603 -9.863013 143 119 65
1.616438 -1.972603 -9.863013 153 127 76
1.671233 -1.972603 -9.863013 148 122 75
1.720137 -1.965870 -9.829351 140 113 72
1.762712 -1.952542 -9.762712 132 106 72
1.798658 -1.932886 -9.664430 127 101 64
1.852349 -1.932886 -9.664430 138 111 67
1.906040 -1.932886 -9.664430 144 116 77
1.953177 -1.926421 -9.632107 147 119 78
1.986755 -1.907285 -9.536424 157 127 81
2.039735 -1.907285 -9.536424 168 138 96
2.092715 -1.907285 -9.536424 168 139 97
2.145695 -1.907285 -9.536424 164 135 93
2.205980 -1.913621 -9.568107 166 134 94
2.274247 -1.926421 -9.632107 157 127 84
2.335571 -1.932886 -9.664430 152 125 80
2.397306 -1.939394 -9.696970 147 121 81
2.442953 -1.932886 -9.664430 131 103 66
2.480000 -1.920000 -9.600000 121 96 60
2.516556 -1.907285 -9.536424 123 97 60
2.552632 -1.894737 -9.473684 125 97 59
2.605263 -1.894737 -9.473684 125 100 57
2.657895 -1.894737 -9.473684 119 94 54
2.710526 -1.894737 -9.473684 110 86 56
2.763158 -1.894737 -9.473684 112 90 60
2.815789 -1.894737 -9.473684 117 95 62
2.868421 -1.894737 -9.473684 114 93 57
2.930693 -1.900990 -9.504951 119 97 58
2.983498 -1.900990 -9.504951 122 102 58
3.026316 -1.894737 -9.473684 122 99 61
3.078947 -1.894737 -9.473684 135 107 72
3.131579 -1.894737 -9.473684 139 110 71
3.194720 -1.900990 -9.504951 139 110 65
3.247525 -1.900990 -9.504951 128 102 61
3.289474 -1.894737 -9.473684 112 90 60
3.342105 -1.894737 -9.473684 110 86 61
3.394737 -1.894737 -9.473684 122 99 63
3.447368 -1.894737 -9.473684 122 98 62
3.500000 -1.894737 -9.473684 133 107 63
3.552632 -1.894737 -9.473684 164 135 80
3.617162 -1.900990 -9.504951 172 143 90
3.682119 -1.907285 -9.536424 172 144 95
3.747508 -1.913621 -9.568107 169 143 98
3.826087 -1.926421 -9.632107 166 138 97
3.945578 -1.959184 -9.795918 165 138 94
4.041237 -1.979381 -9.896907 162 132 94
4.124568 -1.993080 -9.965398 146 118 91
4.179931 -1.993080 -9.965398 136 111 87
4.235294 -1.993080 -9.965398 120 97 76
4.290658 -1.993080 -9.965398 107 85 62
4.361111 -2.000000 -10.000000 103 81 57
4.416667 -2.000000 -10.000000 99 77 52
4.456748 -1.993080 -9.965398 95 71 44
4.512111 -1.993080 -9.965398 91 67 42
4.567474 -1.993080 -9.965398 97 71 41
4.622838 -1.993080 -9.965398 100 70 40
4.678201 -1.993080 -9.965398 97 66 40
4.750000 -2.000000 -10.000000 116 65 54
5.718750 -2.250000 -11.250000 128 80 94
4.010840 -1.560976 -7.804878 152 125 91
4.043243 -1.556757 -7.783784 150 132 83
4.086486 -1.556757 -7.783784 154 127 95
4.140922 -1.560976 -7.804878 132 90 96
4.195652 -1.565217 -7.826087 107 74 96
4.239130 -1.565217 -7.826087 114 88 114
4.282609 -1.565217 -7.826087 112 76 105
4.326087 -1.565217 -7.826087 122 82 100
4.369565 -1.565217 -7.826087 136 99 112
4.413043 -1.565217 -7.826087 125 84 102
4.480875 -1.573771 -7.868853 149 93 100
4.561984 -1.586777 -7.933884 173 113 107
4.696629 -1.617977 -8.089888 168 136 91
4.950147 -1.689150 -8.445747 162 139 85
5.026549 -1.699115 -8.495575 179 158 101
5.103858 -1.709199 -8.545994 207 182 141
5.166667 -1.714286 -8.571428 177 119 112
5.277109 -1.734940 -8.674699 167 99 97
-4.300300 -1.777778 -8.648648 222 31 46
-4.092485 -1.710983 -8.323699 211 32 45
-4.011461 -1.696275 -8.252149 197 33 42
-3.954286 -1.691429 -8.228572 184 35 43
-3.886364 -1.681818 -8.181818 184 34 45
-3.830028 -1.677054 -8.158640 198 32 42
-3.774011 -1.672316 -8.135593 193 33 43
-3.728814 -1.672316 -8.135593 186 33 47
-3.694051 -1.677054 -8.158640 160 34 45
-3.659091 -1.681818 -8.181818 147 36 43
-3.613636 -1.681818 -8.181818 148 34 41
-3.568182 -1.681818 -8.181818 157 32 40
-3.522727 -1.681818 -8.181818 163 31 42
-3.477273 -1.681818 -8.181818 159 32 43
-3.422096 -1.677054 -8.158640 155 32 43
-3.376770 -1.677054 -8.158640 145 33 39
-3.322034 -1.672316 -8.135593 144 33 37
-3.276836 -1.672316 -8.135593 138 34 39
-3.231638 -1.672316 -8.135593 114 38 38
-3.177465 -1.667606 -8.112676 90 44 42
-3.132394 -1.667606 -8.112676 83 51 49
-3.096045 -1.672316 -8.135593 78 53 48
-3.050848 -1.672316 -8.135593 82 47 42
-3.005650 -1.672316 -8.135593 95 44 40
-2.952113 -1.667606 -8.112676 120 39 40
-2.890756 -1.658263 -8.067227 147 37 40
-2.845938 -1.658263 -8.067227 135 41 41
-2.785515 -1.649025 -8.022285 115 48 50
-2.536083 -1.525773 -7.422680 158 44 56
-2.438287 -1.491184 -7.254408 183 72 55
-2.385965 -1.483709 -7.218045 145 174 75
-2.340000 -1.480000 -7.200000 125 211 85
-2.300000 -1.480000 -7.200000 121 211 84
-2.260000 -1.480000 -7.200000 117 207 82
-2.203474 -1.468983 -7.146402 102 185 68
-2.153086 -1.461728 -7.111111 81 152 54
-2.103194 -1.454545 -7.076167 91 178 66
-2.063882 -1.454545 -7.076167 86 172 64
-2.024570 -1.454545 -7.076167 70 135 52
-1.990148 -1.458128 -7.093596 69 133 53
-1.955556 -1.461728 -7.111111 88 172 62
-1.925558 -1.468983 -7.146402 90 170 59
-1.890547 -1.472637 -7.164179 91 166 60
-1.850746 -1.472637 -7.164179 97 177 70
-1.810945 -1.472637 -7.164179 105 192 75
-1.775561 -1.476309 -7.182045 108 194 79
-1.740000 -1.480000 -7.200000 113 198 82
-1.704261 -1.483709 -7.218045 117 204 80
-1.742782 -1.553806 -7.559055 118 204 81
-1.780220 -1.626374 -7.912088 152 151 67
-1.745856 -1.635359 -7.955801 226 59 55
-1.735211 -1.667606 -8.112676 232 41 58
-1.690141 -1.667606 -8.112676 216 42 57
-1.635854 -1.658263 -8.067227 209 42 54
-1.582173 -1.649025 -8.022285 176 59 53
-1.524862 -1.635359 -7.955801 147 135 99
-1.472528 -1.626374 -7.912088 131 153 107
-1.416894 -1.613079 -7.847412 110 143 88
-1.369565 -1.608696 -7.826087 122 157 103
-1.326087 -1.608696 -7.826087 87 136 70
-1.282609 -1.608696 -7.826087 56 121 43
-1.239130 -1.608696 -7.826087 53 121 43
-1.195652 -1.608696 -7.826087 52 116 44
-1.152174 -1.608696 -7.826087 52 114 42
-1.108696 -1.608696 -7.826087 51 111 40
-1.065217 -1.608696 -7.826087 49 110 43
-1.021739 -1.608696 -7.826087 49 107 37
-0.978261 -1.608696 -7.826087 49 107 38
-0.934783 -1.608696 -7.826087 49 107 42
-0.888889 -1.604336 -7.804878 49 100 37
-0.845528 -1.604336 -7.804878 47 104 40
-0.804348 -1.608696 -7.826087 48 113 45
-0.760870 -1.608696 -7.826087 51 118 44
-0.721311 -1.617486 -7.868853 56 122 39
-0.679452 -1.621918 -7.890411 59 120 40
-0.637363 -1.626374 -7.912088 65 118 42
-0.603352 -1.653631 -8.044693 139 83 51
-0.564972 -1.672316 -8.135593 199 40 55
-0.527221 -1.696275 -8.252149 202 38 55
-0.512195 -1.804878 -8.780488 194 40 55
-0.472050 -1.838509 -8.944099 207 40 54
-0.423676 -1.844237 -8.971963 210 42 51
-0.376176 -1.855799 -9.028214 200 62 65
-0.328076 -1.867508 -9.085174 188 130 108
-0.278481 -1.873418 -9.113924 181 149 114
-0.227848 -1.873418 -9.113924 178 149 111
-0.177215 -1.873418 -9.113924 176 152 115
-0.129032 -1.909677 -9.290322 172 152 121
0.065217 -1.608696 -7.826087 177 152 118
0.107239 -1.587131 -7.721179 176 151 116
0.148148 -1.566138 -7.619048 171 158 110
0.188482 -1.549738 -7.539267 147 193 102
0.229765 -1.545692 -7.519582 125 214 92
0.270833 -1.541667 -7.500000 120 215 85
0.312500 -1.541667 -7.500000 117 210 83
0.354167 -1.541667 -7.500000 110 204 83
0.395833 -1.541667 -7.500000 104 197 79
0.435233 -1.533679 -7.461140 99 190 74
0.475452 -1.529716 -7.441861 96 186 68
0.515464 -1.525773 -7.422680 92 181 66
0.555270 -1.521851 -7.403599 89 176 66
0.594872 -1.517949 -7.384615 90 175 64
0.634271 -1.514066 -7.365729 90 176 67
0.675192 -1.514066 -7.365729 94 181 69
0.716113 -1.514066 -7.365729 98 181 73
0.758974 -1.517949 -7.384615 109 192 80
0.802057 -1.521851 -7.403599 115 198 86
0.847545 -1.529716 -7.441861 118 195 89
0.891192 -1.533679 -7.461140 104 128 55
1.184211 -1.947368 -9.473684 109 83 41
1.278912 -2.013605 -9.795918 120 90 51
1.337884 -2.020478 -9.829351 130 102 64
1.392491 -2.020478 -9.829351 133 108 63
1.452055 -2.027397 -9.863013 142 117 71
1.506849 -2.027397 -9.863013 146 121 74
1.556314 -2.020478 -9.829351 144 118 71
1.605442 -2.013605 -9.795918 148 122 75
1.643098 -1.993266 -9.696970 139 115 72
1.691275 -1.986577 -9.664430 135 109 71
1.733333 -1.973333 -9.600000 139 113 75
1.786667 -1.973333 -9.600000 141 112 72
1.840000 -1.973333 -9.600000 144 115 73
1.887043 -1.966777 -9.568107 145 119 74
1.933775 -1.960265 -9.536424 154 128 78
1.980198 -1.953795 -9.504951 156 126 77
2.033003 -1.953795 -9.504951 156 125 82
2.085809 -1.953795 -9.504951 154 124 78
2.138614 -1.953795 -9.504951 150 122 77
2.191419 -1.953795 -9.504951 155 125 83
2.266667 -1.973333 -9.600000 149 120 76
2.327759 -1.979933 -9.632107 144 116 72
2.389262 -1.986577 -9.664430 139 113 72
2.426667 -1.973333 -9.600000 127 102 62
2.463576 -1.960265 -9.536424 121 97 57
2.500000 -1.947368 -9.473684 118 92 57
2.552632 -1.947368 -9.473684 116 90 56
2.605263 -1.947368 -9.473684 123 97 57
2.657895 -1.947368 -9.473684 117 93 54
2.710526 -1.947368 -9.473684 114 91 57
2.763158 -1.947368 -9.473684 111 89 57
2.806557 -1.940984 -9.442623 113 90 60
2.859016 -1.940984 -9.442623 115 91 60
2.911475 -1.940984 -9.442623 120 98 59
2.973684 -1.947368 -9.473684 123 100 62
3.026316 -1.947368 -9.473684 131 106 63
3.078947 -1.947368 -9.473684 128 101 62
3.131579 -1.947368 -9.473684 125 99 65
3.184211 -1.947368 -9.473684 122 95 62
3.236842 -1.947368 -9.473684 125 95 63
3.289474 -1.947368 -9.473684 110 84 60
3.342105 -1.947368 -9.473684 105 82 58
3.394737 -1.947368 -9.473684 119 94 63
3.447368 -1.947368 -9.473684 120 98 63
3.500000 -1.947368 -9.473684 139 114 71
3.552632 -1.947368 -9.473684 174 142 89
3.605263 -1.947368 -9.473684 178 148 97
3.669967 -1.953795 -9.504951 166 140 101
3.735099 -1.960265 -9.536424 157 134 100
3.826087 -1.979933 -9.632107 156 128 90
3.945578 -2.013605 -9.795918 166 137 92
4.027397 -2.027397 -9.863013 160 131 91
4.096220 -2.034364 -9.896907 138 114 86
4.179931 -2.048443 -9.965398 121 100 76
4.235294 -2.048443 -9.965398 115 93 69
4.290658 -2.048443 -9.965398 106 84 57
4.346021 -2.048443 -9.965398 99 79 52
4.401384 -2.048443 -9.965398 93 73 49
4.441380 -2.041379 -9.931034 96 72 45
4.512111 -2.048443 -9.965398 89 66 46
4.567474 -2.048443 -9.965398 99 73 43
4.622838 -2.048443 -9.965398 106 75 37
4.678201 -2.048443 -9.965398 98 66 38
4.750000 -2.055556 -10.000000 119 64 56
3.978261 -1.608696 -7.826087 131 89 93
4.021739 -1.608696 -7.826087 154 130 89
4.054201 -1.604336 -7.804878 151 132 84
4.108696 -1.608696 -7.826087 151 119 95
4.152174 -1.608696 -7.826087 133 85 94
4.207085 -1.613079 -7.847412 110 74 95
4.615385 -1.751479 -8.520710 113 85 112
4.732733 -1.777778 -8.648648 108 76 105
4.780781 -1.777778 -8.648648 117 81 97
4.381471 -1.613079 -7.847412 133 100 113
4.437159 -1.617486 -7.868853 122 86 101
4.517906 -1.630854 -7.933884 147 94 96
4.574585 -1.635359 -7.955801 173 112 105
4.696629 -1.662921 -8.089888 168 135 90
4.921283 -1.725947 -8.396502 163 139 84
4.997067 -1.736070 -8.445747 180 161 102
5.073746 -1.746313 -8.495575 200 170 139
5.136095 -1.751479 -8.520710 174 110 111
5.229851 -1.767164 -8.597015 171 102 99
-4.300300 -1.825826 -8.648648 222 31 46
-4.104348 -1.762319 -8.347826 218 30 45
-4.011461 -1.742120 -8.252149 211 32 42
-3.954286 -1.737143 -8.228572 199 32 44
-3.886364 -1.727273 -8.181818 198 32 42
-3.840909 -1.727273 -8.181818 203 32 40
-3.784703 -1.722380 -8.158640 197 33 42
-3.739377 -1.722380 -8.158640 186 34 42
-3.704545 -1.727273 -8.181818 148 37 37
-3.659091 -1.727273 -8.181818 131 38 37
-3.613636 -1.727273 -8.181818 127 38 38
-3.558074 -1.722380 -8.158640 138 36 41
-3.512748 -1.722380 -8.158640 151 34 42
-3.467422 -1.722380 -8.158640 154 34 39
-3.422096 -1.722380 -8.158640 159 33 38
-3.367232 -1.717514 -8.135593 155 31 39
-3.322034 -1.717514 -8.135593 147 31 39
-3.276836 -1.717514 -8.135593 135 34 38
-3.222535 -1.712676 -8.112676 115 42 40
-3.177465 -1.712676 -8.112676 96 48 41
-3.132394 -1.712676 -8.112676 84 53 45
-3.096045 -1.717514 -8.135593 79 52 44
-3.050848 -1.717514 -8.135593 88 43 40
-2.997183 -1.712676 -8.112676 111 39 38
-2.935574 -1.703081 -8.067227 126 37 41
-2.882682 -1.698324 -8.044693 152 37 45
-2.837989 -1.698324 -8.044693 148 39 46
-2.739726 -1.665753 -7.890411 122 48 52
-2.510204 -1.551020 -7.346939 155 52 54
-2.438287 -1.531486 -7.254408 158 130 66
-2.385965 -1.523810 -7.218045 130 205 86
-2.345865 -1.523810 -7.218045 121 212 85
