ply
format ascii 1.0
element vertex 1198
property float x
property float y
property float z
property uchar red
property uchar green
property uchar blue
end_header
-2.173913 0.695652 -10.434783 114 125 147
-2.100719 0.690647 -10.359713 105 121 161
-2.028571 0.685714 -10.285714 100 119 167
-1.883959 0.655290 -9.829351 97 119 169
-1.786667 0.640000 -9.600000 96 119 172
-1.682848 0.621359 -9.320389 96 119 173
-1.843750 0.750000 -11.250000 96 119 173
-1.781250 0.750000 -11.250000 96 119 173
-1.718750 0.750000 -11.250000 96 117 174
-1.656250 0.750000 -11.250000 96 117 173
-1.593750 0.750000 -11.250000 96 116 174
-1.531250 0.750000 -11.250000 96 114 175
-1.468750 0.750000 -11.250000 94 115 172
-1.333333 0.711111 -10.666667 95 117 170
-1.207018 0.673684 -10.105263 97 117 171
-1.134948 0.664360 -9.965398 98 119 170
-1.068493 0.657534 -9.863013 100 120 164
-0.989967 0.642140 -9.632107 99 119 165
-0.930233 0.637874 -9.568107 96 119 169
-0.871287 0.633663 -9.504951 95 117 168
-0.813115 0.629508 -9.442623 95 117 168
-0.758170 0.627451 -9.411765 95 116 165
-0.536741 0.613419 -9.201278 86 106 172
-0.445902 0.629508 -9.442623 86 109 170
-0.393443 0.629508 -9.442623 87 109 169
-0.335484 0.619355 -9.290322 85 109 171
-0.121045 0.264099 -3.961486 89 113 171
-0.099037 0.264099 -3.961486 115 127 154
0.531250 0.750000 -11.250000 191 185 175
0.593750 0.750000 -11.250000 191 186 173
0.656250 0.750000 -11.250000 190 185 175
0.718750 0.750000 -11.250000 188 181 171
0.746269 0.716418 -10.746268 182 177 164
0.742268 0.659794 -9.896907 185 179 167
0.763158 0.631579 -9.473684 157 151 142
0.815789 0.631579 -9.473684 149 146 134
0.868421 0.631579 -9.473684 176 172 159
0.930233 0.637874 -9.568107 183 177 165
1.104478 0.716418 -10.746268 186 179 167
1.218750 0.750000 -11.250000 175 162 155
1.281250 0.750000 -11.250000 103 61 61
1.298113 0.724528 -10.867925 96 33 33
1.353383 0.721804 -10.827067 79 32 28
1.413534 0.721804 -10.827067 69 33 29
1.468165 0.719101 -10.786517 69 32 28
1.516729 0.713755 -10.706320 66 33 25
1.570370 0.711111 -10.666667 68 32 27
1.629630 0.711111 -10.666667 71 34 27
1.688889 0.711111 -10.666667 73 35 24
1.741697 0.708487 -10.627306 72 34 28
1.807407 0.711111 -10.666667 71 33 28
1.866667 0.711111 -10.666667 70 32 24
1.925926 0.711111 -10.666667 68 32 27
1.985185 0.711111 -10.666667 65 31 27
2.044445 0.711111 -10.666667 65 31 27
2.095941 0.708487 -10.627306 66 31 24
2.147059 0.705882 -10.588235 69 31 25
2.205882 0.705882 -10.588235 70 30 24
2.264706 0.705882 -10.588235 68 31 25
2.323529 0.705882 -10.588235 68 31 26
2.382353 0.705882 -10.588235 71 30 29
2.441176 0.705882 -10.588235 69 30 29
2.500000 0.705882 -10.588235 66 29 30
2.558824 0.705882 -10.588235 69 29 27
2.617647 0.705882 -10.588235 70 29 28
2.676471 0.705882 -10.588235 72 29 28
2.735294 0.705882 -10.588235 73 30 25
2.794118 0.705882 -10.588235 73 30 30
2.852941 0.705882 -10.588235 74 31 30
2.901099 0.703297 -10.549451 71 30 30
2.959707 0.703297 -10.549451 72 31 29
3.007299 0.700730 -10.510949 86 36 33
3.065693 0.700730 -10.510949 119 48 46
3.124088 0.700730 -10.510949 145 57 65
3.182482 0.700730 -10.510949 164 62 73
3.240876 0.700730 -10.510949 172 62 75
3.311355 0.703297 -10.549451 163 61 71
3.369963 0.703297 -10.549451 156 62 67
3.441176 0.705882 -10.588235 158 63 67
3.500000 0.705882 -10.588235 160 64 66
3.545788 0.703297 -10.549451 162 63 70
3.604396 0.703297 -10.549451 159 65 69
3.663004 0.703297 -10.549451 155 72 69
3.735294 0.705882 -10.588235 169 105 99
3.794118 0.705882 -10.588235 190 158 147
3.852941 0.705882 -10.588235 211 205 199
3.926199 0.708487 -10.627306 225 227 230
4.014870 0.713755 -10.706320 228 230 236
4.135849 0.724528 -10.867925 227 229 235
4.343750 0.750000 -11.250000 226 228 234
4.406250 0.750000 -11.250000 226 227 232
4.468750 0.750000 -11.250000 225 227 231
4.531250 0.750000 -11.250000 225 227 230
4.593750 0.750000 -11.250000 218 220 224
4.656250 0.750000 -11.250000 198 200 199
4.718750 0.750000 -11.250000 206 208 203
4.781250 0.750000 -11.250000 185 187 175
4.843750 0.750000 -11.250000 141 151 119
4.906250 0.750000 -11.250000 141 152 121
4.968750 0.750000 -11.250000 153 161 133
5.031250 0.750000 -11.250000 152 158 128
5.093750 0.750000 -11.250000 128 129 103
5.156250 0.750000 -11.250000 120 117 94
5.218750 0.750000 -11.250000 116 112 87
5.281250 0.750000 -11.250000 118 114 84
5.343750 0.750000 -11.250000 126 122 86
5.406250 0.750000 -11.250000 136 133 95
5.468750 0.750000 -11.250000 151 150 117
5.531250 0.750000 -11.250000 168 167 131
5.593750 0.750000 -11.250000 179 181 142
5.656250 0.750000 -11.250000 146 154 122
5.718750 0.750000 -11.250000 119 131 102
5.781250 0.750000 -11.250000 107 122 74
5.843750 0.750000 -11.250000 135 151 99
5.906250 0.750000 -11.250000 146 160 115
5.968750 0.750000 -11.250000 142 155 114
6.031250 0.750000 -11.250000 124 138 93
6.093750 0.750000 -11.250000 133 148 105
6.156250 0.750000 -11.250000 148 162 120
6.218750 0.750000 -11.250000 169 180 141
6.281250 0.750000 -11.250000 185 194 162
6.343750 0.750000 -11.250000 199 204 185
6.406250 0.750000 -11.250000 204 205 187
6.468750 0.750000 -11.250000 190 191 165
6.531250 0.750000 -11.250000 169 171 147
6.593750 0.750000 -11.250000 132 133 108
6.656250 0.750000 -11.250000 158 167 126
6.718750 0.750000 -11.250000 190 195 166
6.781250 0.750000 -11.250000 202 204 187
6.843750 0.750000 -11.250000 189 190 186
-1.210491 0.118359 -1.936785 99 56 64
-1.148744 0.113329 -1.854475 84 50 60
-1.137709 0.113256 -1.853282 85 52 63
-1.124519 0.112965 -1.848524 110 66 77
-1.115681 0.113111 -1.850900 115 70 78
-1.102564 0.112821 -1.846154 107 68 71
-1.089514 0.112532 -1.841432 91 58 67
-1.072427 0.111817 -1.829733 80 53 65
-1.061587 0.111746 -1.828571 76 50 60
-1.052097 0.111817 -1.829733 78 51 61
-1.062865 0.114064 -1.866494 80 53 60
-1.052495 0.114064 -1.866494 81 52 59
-1.036750 0.113475 -1.856866 83 53 63
-1.021167 0.112893 -1.847338 85 53 64
-1.010904 0.112893 -1.847338 93 56 68
-6.093750 0.687500 -11.250000 108 61 73
-6.031250 0.687500 -11.250000 143 109 120
-5.968750 0.687500 -11.250000 181 174 160
-5.906250 0.687500 -11.250000 180 176 156
-5.645283 0.664151 -10.867925 178 175 156
-5.543071 0.659176 -10.786517 179 175 155
-5.462687 0.656716 -10.746268 180 175 157
-5.382900 0.654275 -10.706320 179 171 151
-5.323420 0.654275 -10.706320 180 168 145
-5.283582 0.656716 -10.746268 180 167 143
-5.223881 0.656716 -10.746268 183 169 150
-5.164179 0.656716 -10.746268 189 176 156
-5.123596 0.659176 -10.786517 192 179 158
-5.082707 0.661654 -10.827067 192 173 142
-5.022556 0.661654 -10.827067 192 135 54
-4.962406 0.661654 -10.827067 201 116 9
-5.093750 0.687500 -11.250000 206 98 8
-5.031250 0.687500 -11.250000 208 96 12
-4.968750 0.687500 -11.250000 212 91 14
-4.906250 0.687500 -11.250000 214 90 12
-4.843750 0.687500 -11.250000 216 99 14
-4.781250 0.687500 -11.250000 216 102 14
-4.718750 0.687500 -11.250000 212 112 13
-4.656250 0.687500 -11.250000 207 143 34
-4.593750 0.687500 -11.250000 208 152 53
-4.531250 0.687500 -11.250000 156 120 49
-4.468750 0.687500 -11.250000 103 76 35
-4.406250 0.687500 -11.250000 100 72 40
-4.343750 0.687500 -11.250000 99 71 44
-4.281250 0.687500 -11.250000 99 70 45
-4.218750 0.687500 -11.250000 99 70 46
-4.156250 0.687500 -11.250000 103 70 43
-4.093750 0.687500 -11.250000 103 70 37
-4.031250 0.687500 -11.250000 103 70 37
-3.305556 0.611111 -10.000000 72 79 124
-3.140940 0.590604 -9.664430 78 84 130
-1.794195 0.464380 -7.598945 88 114 162
-1.715762 0.454780 -7.441861 94 115 158
-1.678756 0.455959 -7.461140 112 122 134
-1.694370 0.471850 -7.721179 118 125 125
-2.231884 0.637681 -10.434783 117 126 132
-2.173913 0.637681 -10.434783 111 123 147
-2.115942 0.637681 -10.434783 101 119 164
-2.095941 0.649446 -10.627306 95 118 170
-2.156250 0.687500 -11.250000 97 119 169
-2.093750 0.687500 -11.250000 96 116 165
-2.031250 0.687500 -11.250000 95 117 167
-1.968750 0.687500 -11.250000 94 118 173
-1.906250 0.687500 -11.250000 94 118 172
-1.843750 0.687500 -11.250000 95 117 172
-1.781250 0.687500 -11.250000 94 117 171
-1.718750 0.687500 -11.250000 95 117 172
-1.656250 0.687500 -11.250000 97 117 175
-1.593750 0.687500 -11.250000 97 116 175
-1.531250 0.687500 -11.250000 95 113 174
-1.468750 0.687500 -11.250000 94 113 174
-1.406250 0.687500 -11.250000 95 116 170
-1.343750 0.687500 -11.250000 97 116 168
-1.214815 0.651852 -10.666667 96 116 168
-1.072165 0.604811 -9.896907 97 117 167
-0.983389 0.584718 -9.568107 97 117 166
-0.930233 0.584718 -9.568107 96 119 166
-0.874172 0.582781 -9.536424 97 118 167
-0.826667 0.586667 -9.600000 95 116 169
-0.544959 0.479564 -7.847412 88 110 170
-0.501362 0.479564 -7.847412 87 107 172
-0.528302 0.553459 -9.056603 84 105 170
-0.144444 0.244444 -4.000000 86 108 169
-0.121045 0.242091 -3.961486 88 109 169
-0.099037 0.242091 -3.961486 119 128 155
0.531250 0.687500 -11.250000 181 176 162
0.567164 0.656716 -10.746268 180 175 161
0.600000 0.628571 -10.285714 189 186 172
0.645614 0.617544 -10.105263 191 186 175
0.687285 0.604811 -9.896907 190 185 174
0.712871 0.580858 -9.504951 186 179 168
0.763158 0.578947 -9.473684 159 152 143
0.815789 0.578947 -9.473684 151 149 140
0.868421 0.578947 -9.473684 181 177 167
0.924092 0.580858 -9.504951 192 186 175
1.156250 0.687500 -11.250000 193 187 174
1.218750 0.687500 -11.250000 153 136 129
1.281250 0.687500 -11.250000 91 45 43
1.343750 0.687500 -11.250000 92 34 34
1.358491 0.664151 -10.867925 72 33 27
1.418868 0.664151 -10.867925 70 33 30
1.479245 0.664151 -10.867925 68 32 30
1.528090 0.659176 -10.786517 65 32 27
1.576208 0.654275 -10.706320 72 33 28
1.629630 0.651852 -10.666667 78 34 27
1.688889 0.651852 -10.666667 78 34 26
1.748148 0.651852 -10.666667 77 34 27
1.807407 0.651852 -10.666667 71 32 25
1.866667 0.651852 -10.666667 71 33 26
1.925926 0.651852 -10.666667 66 32 29
1.985185 0.651852 -10.666667 63 31 28
2.036900 0.649446 -10.627306 64 31 28
2.095941 0.649446 -10.627306 66 32 25
2.147059 0.647059 -10.588235 68 31 26
2.205882 0.647059 -10.588235 70 29 24
2.264706 0.647059 -10.588235 69 30 26
2.323529 0.647059 -10.588235 71 30 28
2.382353 0.647059 -10.588235 71 31 26
2.441176 0.647059 -10.588235 66 31 25
2.500000 0.647059 -10.588235 66 29 29
2.558824 0.647059 -10.588235 69 29 29
2.617647 0.647059 -10.588235 69 28 29
2.676471 0.647059 -10.588235 69 29 29
2.735294 0.647059 -10.588235 71 29 30
2.794118 0.647059 -10.588235 73 29 30
2.852941 0.647059 -10.588235 72 31 25
2.911765 0.647059 -10.588235 69 31 25
2.959707 0.644689 -10.549451 66 30 26
3.018315 0.644689 -10.549451 71 31 28
3.065693 0.642336 -10.510949 83 33 26
3.124088 0.642336 -10.510949 88 38 34
3.182482 0.642336 -10.510949 115 52 52
3.240876 0.642336 -10.510949 146 60 65
3.299270 0.642336 -10.510949 156 63 67
3.357664 0.642336 -10.510949 157 63 66
3.416058 0.642336 -10.510949 156 64 66
3.474452 0.642336 -10.510949 157 64 70
3.532847 0.642336 -10.510949 155 65 72
3.604396 0.644689 -10.549451 154 64 69
3.663004 0.644689 -10.549451 156 64 68
3.721612 0.644689 -10.549451 160 67 70
3.780220 0.644689 -10.549451 161 74 74
3.838828 0.644689 -10.549451 162 100 93
3.911765 0.647059 -10.588235 186 153 145
3.970588 0.647059 -10.588235 212 204 199
4.044281 0.649446 -10.627306 226 227 230
4.133829 0.654275 -10.706320 228 230 236
4.406250 0.687500 -11.250000 227 229 235
4.468750 0.687500 -11.250000 226 228 235
4.531250 0.687500 -11.250000 226 227 232
4.593750 0.687500 -11.250000 225 227 231
4.656250 0.687500 -11.250000 222 224 228
4.718750 0.687500 -11.250000 220 221 222
4.781250 0.687500 -11.250000 207 208 202
4.843750 0.687500 -11.250000 172 178 159
4.906250 0.687500 -11.250000 175 182 157
4.968750 0.687500 -11.250000 159 167 141
5.031250 0.687500 -11.250000 134 148 104
5.093750 0.687500 -11.250000 132 145 101
5.156250 0.687500 -11.250000 126 133 101
5.218750 0.687500 -11.250000 117 124 89
5.281250 0.687500 -11.250000 119 125 91
5.343750 0.687500 -11.250000 118 119 84
5.406250 0.687500 -11.250000 127 128 91
5.468750 0.687500 -11.250000 149 154 112
5.531250 0.687500 -11.250000 169 176 136
5.593750 0.687500 -11.250000 162 173 135
5.656250 0.687500 -11.250000 163 177 140
5.718750 0.687500 -11.250000 142 154 127
5.781250 0.687500 -11.250000 102 116 78
5.843750 0.687500 -11.250000 98 117 67
5.906250 0.687500 -11.250000 113 131 82
5.968750 0.687500 -11.250000 117 137 90
6.031250 0.687500 -11.250000 106 124 77
6.093750 0.687500 -11.250000 102 120 72
6.156250 0.687500 -11.250000 116 134 88
6.218750 0.687500 -11.250000 132 146 101
6.281250 0.687500 -11.250000 179 188 156
6.343750 0.687500 -11.250000 192 197 180
6.406250 0.687500 -11.250000 207 210 197
6.468750 0.687500 -11.250000 212 215 208
6.531250 0.687500 -11.250000 190 191 188
6.593750 0.687500 -11.250000 137 140 127
6.656250 0.687500 -11.250000 151 159 130
6.718750 0.687500 -11.250000 143 147 120
6.781250 0.687500 -11.250000 155 160 128
6.843750 0.687500 -11.250000 166 171 149
-1.148744 0.103026 -1.854475 85 50 59
-1.134788 0.102696 -1.848524 91 55 68
-1.123077 0.102564 -1.846154 123 72 84
-1.112821 0.102564 -1.846154 116 68 78
-1.099744 0.102302 -1.841432 107 68 71
-1.086735 0.102041 -1.836735 93 59 67
-1.072427 0.101652 -1.829733 81 54 68
-1.062262 0.101652 -1.829733 79 51 63
-1.059501 0.102367 -1.842610 80 52 63
-1.042126 0.103694 -1.866494 84 54 63
-1.021823 0.102696 -1.848524 85 55 66
-1.011553 0.102696 -1.848524 91 56 67
-6.093750 0.625000 -11.250000 110 63 74
-6.031250 0.625000 -11.250000 137 92 106
-5.968750 0.625000 -11.250000 178 163 156
-5.906250 0.625000 -11.250000 178 174 157
-5.645283 0.603774 -10.867925 178 172 156
-5.543071 0.599251 -10.786517 178 173 155
-5.483146 0.599251 -10.786517 178 173 154
-5.402985 0.597015 -10.746268 180 171 155
-5.343284 0.597015 -10.746268 181 171 149
-5.283582 0.597015 -10.746268 181 169 144
-5.223881 0.597015 -10.746268 181 168 145
-5.183521 0.599251 -10.786517 184 171 150
-5.162264 0.603774 -10.867925 188 174 154
-5.101887 0.603774 -10.867925 192 169 139
-5.041510 0.603774 -10.867925 195 131 48
-5.156250 0.625000 -11.250000 205 122 9
-5.093750 0.625000 -11.250000 206 103 6
-5.031250 0.625000 -11.250000 208 94 11
-4.968750 0.625000 -11.250000 212 89 14
-4.906250 0.625000 -11.250000 215 90 12
-4.843750 0.625000 -11.250000 215 97 14
-4.781250 0.625000 -11.250000 213 97 17
-4.718750 0.625000 -11.250000 213 101 15
-4.656250 0.625000 -11.250000 214 104 22
-4.593750 0.625000 -11.250000 217 101 26
-4.531250 0.625000 -11.250000 199 118 42
-4.468750 0.625000 -11.250000 123 88 34
-4.406250 0.625000 -11.250000 98 71 42
-4.343750 0.625000 -11.250000 100 70 47
-4.281250 0.625000 -11.250000 99 70 44
-4.218750 0.625000 -11.250000 101 70 45
-4.156250 0.625000 -11.250000 101 70 41
-4.093750 0.625000 -11.250000 102 71 36
-4.031250 0.625000 -11.250000 104 72 37
-1.784615 0.410256 -7.384615 94 114 157
-1.794195 0.422164 -7.598945 89 114 167
-1.751979 0.422164 -7.598945 95 115 163
-1.714286 0.423280 -7.619048 111 124 143
-1.770308 0.448179 -8.067227 116 127 135
-2.231884 0.579710 -10.434783 111 124 139
-2.214022 0.590406 -10.627306 105 120 155
-2.179105 0.597015 -10.746268 98 119 170
-2.218750 0.625000 -11.250000 95 119 172
-2.031250 0.625000 -11.250000 98 119 166
-1.968750 0.625000 -11.250000 97 117 169
-1.906250 0.625000 -11.250000 95 116 170
-1.843750 0.625000 -11.250000 94 116 172
-1.781250 0.625000 -11.250000 94 116 169
-1.718750 0.625000 -11.250000 96 115 165
-1.656250 0.625000 -11.250000 97 115 171
-1.593750 0.625000 -11.250000 97 116 173
-1.531250 0.625000 -11.250000 94 115 172
-1.468750 0.625000 -11.250000 94 113 172
-1.406250 0.625000 -11.250000 95 113 171
-1.343750 0.625000 -11.250000 97 115 167
-1.281250 0.625000 -11.250000 96 115 168
-1.079585 0.553633 -9.965398 96 115 170
-0.983389 0.531561 -9.568107 96 115 170
-0.930233 0.531561 -9.568107 95 116 170
-0.880000 0.533333 -9.600000 95 116 170
-0.144444 0.222222 -4.000000 86 108 168
-0.121379 0.220690 -3.972414 90 109 167
-0.099310 0.220690 -3.972414 116 127 155
0.507463 0.597015 -10.746268 175 170 160
0.542857 0.571429 -10.285714 174 170 158
0.589474 0.561404 -10.105263 188 184 169
0.638889 0.555556 -10.000000 189 185 172
0.687285 0.549828 -9.896907 190 184 175
0.715232 0.529801 -9.536424 189 183 171
0.765677 0.528053 -9.504951 180 176 161
0.818482 0.528053 -9.504951 174 169 158
0.871287 0.528053 -9.504951 182 177 166
0.933333 0.533333 -9.600000 193 187 175
1.156250 0.625000 -11.250000 192 186 173
1.218750 0.625000 -11.250000 129 104 98
1.281250 0.625000 -11.250000 86 37 34
1.343750 0.625000 -11.250000 85 35 32
1.353383 0.601504 -10.827067 69 33 26
1.413534 0.601504 -10.827067 72 33 27
1.468165 0.599251 -10.786517 69 32 26
1.528090 0.599251 -10.786517 66 32 27
1.588015 0.599251 -10.786517 75 33 27
1.635688 0.594796 -10.706320 80 33 26
1.688889 0.592593 -10.666667 78 34 28
1.748148 0.592593 -10.666667 74 33 27
1.807407 0.592593 -10.666667 71 33 27
1.866667 0.592593 -10.666667 69 33 28
1.925926 0.592593 -10.666667 65 32 28
1.985185 0.592593 -10.666667 64 33 26
2.044445 0.592593 -10.666667 65 32 26
2.103704 0.592593 -10.666667 67 31 29
2.154982 0.590406 -10.627306 69 31 26
2.205882 0.588235 -10.588235 71 29 26
2.264706 0.588235 -10.588235 74 29 25
2.323529 0.588235 -10.588235 75 29 28
2.382353 0.588235 -10.588235 68 30 27
2.450185 0.590406 -10.627306 63 31 25
2.509225 0.590406 -10.627306 65 30 27
2.558824 0.588235 -10.588235 67 29 30
2.617647 0.588235 -10.588235 68 28 31
2.676471 0.588235 -10.588235 68 28 30
2.735294 0.588235 -10.588235 71 29 32
2.794118 0.588235 -10.588235 74 30 27
2.852941 0.588235 -10.588235 73 31 24
2.911765 0.588235 -10.588235 68 30 26
2.959707 0.586081 -10.549451 66 31 25
3.018315 0.586081 -10.549451 69 32 25
3.065693 0.583942 -10.510949 74 31 25
3.124088 0.583942 -10.510949 71 31 29
3.182482 0.583942 -10.510949 73 34 29
3.240876 0.583942 -10.510949 91 40 36
3.299270 0.583942 -10.510949 114 49 45
3.357664 0.583942 -10.510949 140 60 63
3.416058 0.583942 -10.510949 154 64 65
3.474452 0.583942 -10.510949 160 64 67
3.532847 0.583942 -10.510949 157 65 73
3.591241 0.583942 -10.510949 151 62 71
3.649635 0.583942 -10.510949 152 64 69
3.721612 0.586081 -10.549451 153 63 68
3.780220 0.586081 -10.549451 156 64 67
3.838828 0.586081 -10.549451 156 65 69
3.897436 0.586081 -10.549451 160 74 74
3.956044 0.586081 -10.549451 163 101 95
4.014652 0.586081 -10.549451 186 156 146
4.088235 0.588235 -10.588235 216 209 206
4.162362 0.590406 -10.627306 227 229 232
4.284644 0.599251 -10.786517 227 229 236
4.531250 0.625000 -11.250000 226 228 235
4.593750 0.625000 -11.250000 226 227 233
4.656250 0.625000 -11.250000 226 227 232
4.718750 0.625000 -11.250000 223 224 227
4.781250 0.625000 -11.250000 211 213 210
4.843750 0.625000 -11.250000 219 221 220
4.906250 0.625000 -11.250000 198 201 198
4.968750 0.625000 -11.250000 148 156 132
5.031250 0.625000 -11.250000 135 150 110
5.093750 0.625000 -11.250000 136 150 105
5.156250 0.625000 -11.250000 135 146 109
5.218750 0.625000 -11.250000 124 141 100
5.281250 0.625000 -11.250000 118 143 92
5.343750 0.625000 -11.250000 114 132 88
5.406250 0.625000 -11.250000 108 122 80
5.468750 0.625000 -11.250000 150 168 116
5.531250 0.625000 -11.250000 165 181 141
5.593750 0.625000 -11.250000 144 159 122
5.656250 0.625000 -11.250000 132 146 105
5.718750 0.625000 -11.250000 147 162 118
5.781250 0.625000 -11.250000 118 130 95
5.843750 0.625000 -11.250000 105 118 77
5.906250 0.625000 -11.250000 106 126 77
5.968750 0.625000 -11.250000 115 141 92
6.031250 0.625000 -11.250000 100 122 76
6.093750 0.625000 -11.250000 109 130 78
6.156250 0.625000 -11.250000 126 150 98
6.218750 0.625000 -11.250000 127 147 98
6.281250 0.625000 -11.250000 173 186 148
6.343750 0.625000 -11.250000 199 206 186
6.406250 0.625000 -11.250000 176 181 169
6.468750 0.625000 -11.250000 179 187 163
6.531250 0.625000 -11.250000 214 219 215
6.593750 0.625000 -11.250000 187 188 190
6.656250 0.625000 -11.250000 165 169 158
6.718750 0.625000 -11.250000 144 147 130
6.781250 0.625000 -11.250000 126 130 105
6.843750 0.625000 -11.250000 126 130 104
-1.212938 0.097035 -1.940701 90 52 59
-1.147267 0.092605 -1.852090 78 48 57
-1.133333 0.092308 -1.846154 97 59 75
-1.119489 0.092013 -1.840256 131 78 91
-1.109974 0.092072 -1.841432 119 71 78
-1.096939 0.091837 -1.836735 108 69 72
-1.085350 0.091720 -1.834395 97 61 69
-1.075159 0.091720 -1.834395 87 53 69
-1.066326 0.091837 -1.836735 84 53 66
-1.059501 0.092131 -1.842610 82 54 66
-1.049264 0.092131 -1.842610 83 53 64
-6.093750 0.562500 -11.250000 102 60 73
-6.031250 0.562500 -11.250000 129 82 96
-5.968750 0.562500 -11.250000 176 156 155
-5.906250 0.562500 -11.250000 183 178 164
-5.624060 0.541353 -10.827067 179 173 158
-5.543071 0.539326 -10.786517 179 173 157
-5.483146 0.539326 -10.786517 181 172 156
-5.382900 0.535316 -10.706320 181 172 157
-5.323420 0.535316 -10.706320 181 172 152
-5.263940 0.535316 -10.706320 183 169 149
-5.223881 0.537313 -10.746268 183 168 147
-5.203008 0.541353 -10.827067 186 170 150
-5.343750 0.562500 -11.250000 188 173 152
-5.281250 0.562500 -11.250000 189 166 137
-5.218750 0.562500 -11.250000 193 125 48
-4.981132 0.543396 -10.867925 203 118 8
-4.902256 0.541353 -10.827067 203 99 7
-4.842105 0.541353 -10.827067 204 94 9
-4.781955 0.541353 -10.827067 207 89 9
-4.906250 0.562500 -11.250000 210 87 13
-4.843750 0.562500 -11.250000 210 94 13
-4.781250 0.562500 -11.250000 213 92 12
-4.718750 0.562500 -11.250000 216 85 14
-4.656250 0.562500 -11.250000 217 83 19
-4.593750 0.562500 -11.250000 218 88 19
-4.531250 0.562500 -11.250000 217 106 29
-4.468750 0.562500 -11.250000 158 99 34
-4.406250 0.562500 -11.250000 102 73 40
-4.343750 0.562500 -11.250000 99 71 45
-4.281250 0.562500 -11.250000 101 70 41
-4.218750 0.562500 -11.250000 103 70 39
-4.156250 0.562500 -11.250000 101 69 40
-4.093750 0.562500 -11.250000 103 72 40
-4.031250 0.562500 -11.250000 105 75 35
-2.541806 0.481605 -9.632107 86 95 119
-2.447368 0.473684 -9.473684 89 95 121
-2.394737 0.473684 -9.473684 92 99 116
-1.807107 0.365482 -7.309645 94 104 127
-1.784615 0.369231 -7.384615 97 112 152
-2.023809 0.428571 -8.571428 92 113 168
-1.976190 0.428571 -8.571428 96 114 163
-1.867435 0.414986 -8.299712 109 122 145
-1.897898 0.432432 -8.648648 111 125 141
-1.925000 0.450000 -9.000000 108 122 144
-2.343750 0.562500 -11.250000 102 118 161
-2.281250 0.562500 -11.250000 96 117 175
-2.218750 0.562500 -11.250000 96 118 174
-2.156250 0.562500 -11.250000 96 119 171
-2.093750 0.562500 -11.250000 97 119 168
-2.031250 0.562500 -11.250000 97 118 164
-1.968750 0.562500 -11.250000 97 117 166
-1.906250 0.562500 -11.250000 97 116 168
-1.843750 0.562500 -11.250000 94 116 169
-1.781250 0.562500 -11.250000 93 115 166
-1.718750 0.562500 -11.250000 97 116 162
-1.656250 0.562500 -11.250000 97 116 167
-1.593750 0.562500 -11.250000 97 116 170
-1.531250 0.562500 -11.250000 94 116 172
-1.468750 0.562500 -11.250000 93 116 173
-1.406250 0.562500 -11.250000 95 115 172
-1.343750 0.562500 -11.250000 96 114 170
-1.281250 0.562500 -11.250000 94 115 169
-1.164179 0.537313 -10.746268 94 114 170
-1.024221 0.498270 -9.965398 95 115 171
-0.933333 0.480000 -9.600000 95 115 169
-1.031250 0.562500 -11.250000 96 117 168
-0.468750 0.562500 -11.250000 84 107 170
-0.144847 0.200557 -4.011142 85 109 166
-0.121547 0.198895 -3.977901 86 109 165
-0.099448 0.198895 -3.977901 117 128 155
0.531250 0.562500 -11.250000 193 186 178
0.573585 0.543396 -10.867925 190 186 175
0.593640 0.508834 -10.176679 190 185 172
0.638889 0.500000 -10.000000 190 184 173
0.687285 0.494845 -9.896907 190 184 172
0.720000 0.480000 -9.600000 190 184 172
0.768212 0.476821 -9.536424 182 176 165
0.821192 0.476821 -9.536424 171 165 154
0.880000 0.480000 -9.600000 181 175 164
0.979021 0.503497 -10.069930 194 188 176
1.156250 0.562500 -11.250000 183 173 166
1.218750 0.562500 -11.250000 107 73 71
1.281250 0.562500 -11.250000 89 35 34
1.343750 0.562500 -11.250000 81 33 31
1.406250 0.562500 -11.250000 69 34 25
1.413534 0.541353 -10.827067 71 33 25
1.468165 0.539326 -10.786517 67 32 26
1.528090 0.539326 -10.786517 68 31 27
1.588015 0.539326 -10.786517 75 31 25
1.647940 0.539326 -10.786517 79 32 26
1.695167 0.535316 -10.706320 75 34 26
1.748148 0.533333 -10.666667 73 32 27
1.807407 0.533333 -10.666667 72 32 27
1.866667 0.533333 -10.666667 68 33 26
1.918819 0.531365 -10.627306 64 33 24
1.977860 0.531365 -10.627306 65 33 23
2.044445 0.533333 -10.666667 66 33 24
2.103704 0.533333 -10.666667 68 31 28
2.162963 0.533333 -10.666667 69 29 30
2.222222 0.533333 -10.666667 72 28 28
2.273063 0.531365 -10.627306 76 30 25
2.332103 0.531365 -10.627306 74 29 25
2.391144 0.531365 -10.627306 66 29 25
2.450185 0.531365 -10.627306 62 30 25
2.509225 0.531365 -10.627306 65 30 27
2.568266 0.531365 -10.627306 66 29 28
2.617647 0.529412 -10.588235 67 29 29
2.676471 0.529412 -10.588235 68 30 30
2.735294 0.529412 -10.588235 69 31 28
2.794118 0.529412 -10.588235 73 31 28
2.852941 0.529412 -10.588235 71 32 28
2.911765 0.529412 -10.588235 67 31 29
2.970588 0.529412 -10.588235 67 30 29
3.018315 0.527473 -10.549451 70 31 28
3.065693 0.525547 -10.510949 73 31 29
3.124088 0.525547 -10.510949 74 31 29
3.182482 0.525547 -10.510949 73 32 28
3.240876 0.525547 -10.510949 77 32 27
3.299270 0.525547 -10.510949 80 34 29
3.345454 0.523636 -10.472727 94 44 40
3.403636 0.523636 -10.472727 119 53 52
3.461818 0.523636 -10.472727 142 59 61
3.520000 0.523636 -10.472727 156 62 73
3.578182 0.523636 -10.472727 158 62 70
3.649635 0.525547 -10.510949 155 64 67
3.708029 0.525547 -10.510949 151 63 68
3.766423 0.525547 -10.510949 152 64 70
3.824817 0.525547 -10.510949 155 65 70
3.897436 0.527473 -10.549451 158 65 68
3.956044 0.527473 -10.549451 157 66 68
4.014652 0.527473 -10.549451 154 75 70
4.073260 0.527473 -10.549451 168 111 102
4.131868 0.527473 -10.549451 192 164 153
4.205883 0.529412 -10.588235 215 211 207
4.280443 0.531365 -10.627306 226 229 233
4.421052 0.541353 -10.827067 227 228 235
4.656250 0.562500 -11.250000 227 227 233
4.718750 0.562500 -11.250000 225 228 232
4.781250 0.562500 -11.250000 223 225 228
4.843750 0.562500 -11.250000 224 225 230
4.906250 0.562500 -11.250000 213 215 216
4.968750 0.562500 -11.250000 195 200 194
5.031250 0.562500 -11.250000 177 190 163
5.093750 0.562500 -11.250000 172 184 148
5.156250 0.562500 -11.250000 139 150 113
5.218750 0.562500 -11.250000 113 132 90
5.281250 0.562500 -11.250000 116 146 93
5.343750 0.562500 -11.250000 118 147 94
5.406250 0.562500 -11.250000 143 161 120
5.468750 0.562500 -11.250000 151 170 129
5.531250 0.562500 -11.250000 161 180 136
5.593750 0.562500 -11.250000 157 168 130
5.656250 0.562500 -11.250000 154 167 126
5.718750 0.562500 -11.250000 178 191 157
5.781250 0.562500 -11.250000 161 173 139
5.843750 0.562500 -11.250000 160 170 138
5.906250 0.562500 -11.250000 116 127 95
5.968750 0.562500 -11.250000 115 126 79
6.031250 0.562500 -11.250000 111 118 78
6.093750 0.562500 -11.250000 108 116 71
6.156250 0.562500 -11.250000 115 140 82
6.218750 0.562500 -11.250000 116 146 89
6.281250 0.562500 -11.250000 117 138 91
6.343750 0.562500 -11.250000 125 140 100
6.406250 0.562500 -11.250000 115 127 94
6.468750 0.562500 -11.250000 119 134 88
6.531250 0.562500 -11.250000 191 200 171
6.593750 0.562500 -11.250000 211 214 205
6.656250 0.562500 -11.250000 180 184 169
6.718750 0.562500 -11.250000 159 166 139
6.781250 0.562500 -11.250000 186 190 168
6.843750 0.562500 -11.250000 158 158 147
-1.212938 0.086253 -1.940701 84 48 56
-1.145058 0.082157 -1.848524 81 48 62
-1.131882 0.081946 -1.843790 111 64 88
-1.115924 0.081529 -1.834395 141 83 99
-1.105732 0.081529 -1.834395 123 75 80
-1.095541 0.081529 -1.834395 109 68 74
-1.085350 0.081529 -1.834395 101 62 69
-1.076531 0.081633 -1.836735 90 54 65
-1.066326 0.081633 -1.836735 84 53 68
-1.057471 0.081737 -1.839080 85 55 69
-1.043257 0.081425 -1.832061 86 53 67
-6.031250 0.500000 -11.250000 121 72 83
-5.968750 0.500000 -11.250000 165 134 142
-5.906250 0.500000 -11.250000 192 186 174
-5.602996 0.479401 -10.786517 183 181 163
-5.501859 0.475836 -10.706320 179 174 156
-5.442379 0.475836 -10.706320 179 173 156
-5.382900 0.475836 -10.706320 180 173 153
-5.323420 0.475836 -10.706320 180 172 152
-5.263940 0.475836 -10.706320 182 170 151
-5.204461 0.475836 -10.706320 183 169 151
-5.164179 0.477612 -10.746268 184 168 151
-5.162264 0.483019 -10.867925 185 170 148
-5.101887 0.483019 -10.867925 187 167 138
-5.022556 0.481203 -10.827067 190 125 57
-4.943820 0.479401 -10.786517 204 117 10
-4.865672 0.477612 -10.746268 203 105 6
-4.788104 0.475836 -10.706320 202 98 8
-4.764045 0.479401 -10.786517 201 101 5
-4.704120 0.479401 -10.786517 204 108 12
-4.843750 0.500000 -11.250000 207 106 12
-4.781250 0.500000 -11.250000 213 91 10
-4.718750 0.500000 -11.250000 217 88 15
-4.656250 0.500000 -11.250000 217 86 17
-4.593750 0.500000 -11.250000 217 86 13
-4.531250 0.500000 -11.250000 218 100 23
-4.468750 0.500000 -11.250000 186 113 34
-4.406250 0.500000 -11.250000 110 88 35
-4.343750 0.500000 -11.250000 100 72 43
-4.281250 0.500000 -11.250000 102 71 38
-4.218750 0.500000 -11.250000 103 70 38
-4.156250 0.500000 -11.250000 102 71 40
-4.093750 0.500000 -11.250000 104 74 38
-4.031250 0.500000 -11.250000 107 77 36
-3.968750 0.500000 -11.250000 107 79 34
-2.595318 0.428094 -9.632107 98 102 114
-2.541806 0.428094 -9.632107 92 97 114
-2.480000 0.426667 -9.600000 94 98 116
-1.780000 0.320000 -7.200000 101 103 118
-1.740000 0.320000 -7.200000 101 110 137
-2.085890 0.392638 -8.834355 94 113 165
-2.055727 0.396285 -8.916409 95 114 165
-1.951807 0.385542 -8.674699 107 120 149
-1.932722 0.391437 -8.807340 108 124 143
-1.925000 0.400000 -9.000000 105 121 150
-2.343750 0.500000 -11.250000 100 118 164
-2.281250 0.500000 -11.250000 95 119 176
-2.218750 0.500000 -11.250000 96 119 176
-2.156250 0.500000 -11.250000 97 118 174
-2.093750 0.500000 -11.250000 94 117 172
-2.031250 0.500000 -11.250000 95 117 166
-1.968750 0.500000 -11.250000 94 117 167
-1.906250 0.500000 -11.250000 95 116 167
-1.843750 0.500000 -11.250000 93 115 166
-1.781250 0.500000 -11.250000 93 114 165
-1.718750 0.500000 -11.250000 96 115 164
-1.656250 0.500000 -11.250000 95 117 169
-1.593750 0.500000 -11.250000 94 117 172
-1.531250 0.500000 -11.250000 93 117 176
-1.468750 0.500000 -11.250000 93 115 176
-1.406250 0.500000 -11.250000 93 115 173
-1.343750 0.500000 -11.250000 95 113 171
-1.281250 0.500000 -11.250000 93 115 169
-1.164179 0.477612 -10.746268 93 115 169
-1.156250 0.500000 -11.250000 94 116 168
-1.093750 0.500000 -11.250000 93 116 168
-1.031250 0.500000 -11.250000 94 117 168
-0.968750 0.500000 -11.250000 92 115 169
-0.906250 0.500000 -11.250000 91 115 167
-0.843750 0.500000 -11.250000 92 114 164
-0.781250 0.500000 -11.250000 92 112 164
-0.468750 0.500000 -11.250000 83 105 170
-0.406250 0.500000 -11.250000 85 108 168
-0.122563 0.178273 -4.011142 85 108 169
0.531250 0.500000 -11.250000 191 184 176
0.593750 0.500000 -11.250000 189 184 176
0.656250 0.500000 -11.250000 189 184 174
0.652482 0.453901 -10.212766 190 184 172
0.694444 0.444444 -10.000000 190 184 172
0.742268 0.439863 -9.896907 191 185 173
0.773333 0.426667 -9.600000 191 187 172
0.826667 0.426667 -9.600000 192 189 174
0.923077 0.447552 -10.069930 192 189 179
1.093750 0.500000 -11.250000 194 190 177
1.156250 0.500000 -11.250000 163 150 141
1.218750 0.500000 -11.250000 92 51 50
1.281250 0.500000 -11.250000 92 35 35
1.343750 0.500000 -11.250000 78 34 26
1.406250 0.500000 -11.250000 71 35 24
1.468750 0.500000 -11.250000 69 34 25
1.473684 0.481203 -10.827067 63 33 24
1.528090 0.479401 -10.786517 66 32 26
1.588015 0.479401 -10.786517 75 32 26
1.647940 0.479401 -10.786517 78 31 29
1.695167 0.475836 -10.706320 75 33 30
1.754647 0.475836 -10.706320 72 33 26
1.814126 0.475836 -10.706320 72 32 26
1.866667 0.474074 -10.666667 68 32 26
1.925926 0.474074 -10.666667 65 32 24
1.985185 0.474074 -10.666667 64 33 25
2.044445 0.474074 -10.666667 66 32 27
2.111524 0.475836 -10.706320 70 29 27
2.171004 0.475836 -10.706320 71 28 32
2.230483 0.475836 -10.706320 72 29 29
2.281482 0.474074 -10.666667 73 31 24
2.340741 0.474074 -10.666667 70 30 26
2.391144 0.472325 -10.627306 63 30 25
2.450185 0.472325 -10.627306 63 29 24
2.509225 0.472325 -10.627306 64 29 25
2.558824 0.470588 -10.588235 66 29 25
2.617647 0.470588 -10.588235 69 30 30
2.676471 0.470588 -10.588235 70 30 30
2.735294 0.470588 -10.588235 69 31 27
2.794118 0.470588 -10.588235 73 32 31
2.852941 0.470588 -10.588235 69 31 31
2.911765 0.470588 -10.588235 66 31 27
2.970588 0.470588 -10.588235 66 31 27
3.029412 0.470588 -10.588235 70 32 25
3.076923 0.468864 -10.549451 74 31 28
3.124088 0.467153 -10.510949 75 30 29
3.182482 0.467153 -10.510949 76 31 27
3.240876 0.467153 -10.510949 74 32 23
3.287273 0.465455 -10.472727 72 33 25
3.345454 0.465455 -10.472727 68 34 24
3.403636 0.465455 -10.472727 74 36 29
3.461818 0.465455 -10.472727 95 42 41
3.520000 0.465455 -10.472727 123 53 56
3.578182 0.465455 -10.472727 141 60 60
3.636364 0.465455 -10.472727 156 64 65
3.694546 0.465455 -10.472727 161 65 72
3.752727 0.465455 -10.472727 157 64 70
3.824817 0.467153 -10.510949 156 65 70
3.883212 0.467153 -10.510949 156 62 68
3.941606 0.467153 -10.510949 155 63 70
4.000000 0.467153 -10.510949 155 65 65
4.058394 0.467153 -10.510949 158 67 65
4.116788 0.467153 -10.510949 157 75 68
4.175182 0.467153 -10.510949 165 112 99
4.249084 0.468864 -10.549451 191 167 157
4.323529 0.470588 -10.588235 216 212 208
4.414815 0.474074 -10.666667 228 228 233
4.718750 0.500000 -11.250000 227 228 234
4.781250 0.500000 -11.250000 225 227 230
4.843750 0.500000 -11.250000 222 224 229
4.906250 0.500000 -11.250000 201 204 203
4.968750 0.500000 -11.250000 205 210 203
5.031250 0.500000 -11.250000 198 203 197
5.093750 0.500000 -11.250000 176 186 162
5.156250 0.500000 -11.250000 154 161 141
5.218750 0.500000 -11.250000 130 141 108
5.281250 0.500000 -11.250000 154 170 142
5.343750 0.500000 -11.250000 121 142 103
5.406250 0.500000 -11.250000 140 160 111
5.468750 0.500000 -11.250000 146 166 125
5.531250 0.500000 -11.250000 142 162 112
5.593750 0.500000 -11.250000 173 185 144
5.656250 0.500000 -11.250000 166 174 145
5.718750 0.500000 -11.250000 167 178 141
5.781250 0.500000 -11.250000 171 183 155
5.843750 0.500000 -11.250000 138 152 114
5.906250 0.500000 -11.250000 118 115 87
5.968750 0.500000 -11.250000 122 77 63
6.031250 0.500000 -11.250000 125 70 57
6.093750 0.500000 -11.250000 125 75 58
6.156250 0.500000 -11.250000 120 101 67
6.218750 0.500000 -11.250000 116 131 81
6.281250 0.500000 -11.250000 105 124 79
6.343750 0.500000 -11.250000 95 112 67
6.406250 0.500000 -11.250000 117 132 81
6.468750 0.500000 -11.250000 132 146 103
6.531250 0.500000 -11.250000 147 158 115
6.593750 0.500000 -11.250000 177 185 156
6.656250 0.500000 -11.250000 139 145 116
6.718750 0.500000 -11.250000 125 135 84
6.781250 0.500000 -11.250000 178 185 146
6.843750 0.500000 -11.250000 159 161 145
-1.212938 0.075472 -1.940701 76 46 54
-1.143590 0.071795 -1.846154 82 51 63
-1.131882 0.071703 -1.843790 116 68 88
-1.115924 0.071338 -1.834395 143 82 100
-1.105732 0.071338 -1.834395 132 80 87
-1.095541 0.071338 -1.834395 112 70 75
-1.086735 0.071429 -1.836735 101 62 66
-1.076531 0.071429 -1.836735 91 56 65
-1.066326 0.071429 -1.836735 85 54 69
-1.053435 0.071247 -1.832061 86 55 69
-1.039290 0.070976 -1.825095 89 56 68
-1.029151 0.070976 -1.825095 86 53 64
-6.031250 0.437500 -11.250000 114 66 79
-5.968750 0.437500 -11.250000 145 100 113
-5.906250 0.437500 -11.250000 192 178 175
-5.561338 0.416357 -10.706320 195 191 176
-5.461255 0.413284 -10.627306 184 182 161
-5.402214 0.413284 -10.627306 180 177 158
-5.362963 0.414815 -10.666667 180 173 154
-5.323420 0.416357 -10.706320 180 172 152
-5.263940 0.416357 -10.706320 180 171 149
-5.204461 0.416357 -10.706320 183 169 150
-5.164179 0.417910 -10.746268 182 169 151
-5.123596 0.419476 -10.786517 182 170 147
-5.063671 0.419476 -10.786517 185 170 146
-5.003746 0.419476 -10.786517 186 139 87
-4.925373 0.417910 -10.746268 198 123 21
-4.847584 0.416357 -10.706320 201 117 13
-4.788104 0.416357 -10.706320 204 107 9
-4.728624 0.416357 -10.706320 202 116 6
-4.704120 0.419476 -10.786517 201 119 9
-4.843750 0.437500 -11.250000 206 111 9
-4.781250 0.437500 -11.250000 213 93 13
-4.718750 0.437500 -11.250000 215 86 18
-4.656250 0.437500 -11.250000 215 82 20
-4.593750 0.437500 -11.250000 217 79 18
-4.531250 0.437500 -11.250000 216 95 22
-4.468750 0.437500 -11.250000 199 126 29
-4.406250 0.437500 -11.250000 123 113 37
-4.343750 0.437500 -11.250000 99 76 42
-4.281250 0.437500 -11.250000 100 72 39
-4.218750 0.437500 -11.250000 98 71 41
-4.156250 0.437500 -11.250000 99 71 39
-4.093750 0.437500 -11.250000 102 73 36
-4.031250 0.437500 -11.250000 107 79 36
-3.968750 0.437500 -11.250000 105 80 34
-3.906250 0.437500 -11.250000 99 76 38
-3.843750 0.437500 -11.250000 95 73 43
-2.621622 0.378378 -9.729730 100 102 113
-2.968750 0.437500 -11.250000 96 95 105
-2.906250 0.437500 -11.250000 100 98 104
-2.843750 0.437500 -11.250000 102 99 107
-2.342105 0.368421 -9.473684 101 103 113
-2.154799 0.346749 -8.916409 106 109 121
-2.105263 0.346749 -8.916409 99 114 157
-2.055727 0.346749 -8.916409 93 114 167
-2.000000 0.345679 -8.888889 103 118 152
-1.956656 0.346749 -8.916409 105 120 146
-2.406250 0.437500 -11.250000 102 118 151
-2.343750 0.437500 -11.250000 97 118 165
-2.281250 0.437500 -11.250000 94 118 175
-2.218750 0.437500 -11.250000 94 118 175
-2.156250 0.437500 -11.250000 95 117 172
-2.093750 0.437500 -11.250000 95 117 168
-2.031250 0.437500 -11.250000 94 117 167
-1.968750 0.437500 -11.250000 92 117 170
-1.906250 0.437500 -11.250000 93 117 169
-1.843750 0.437500 -11.250000 93 116 167
-1.781250 0.437500 -11.250000 93 114 166
-1.718750 0.437500 -11.250000 95 113 163
-1.656250 0.437500 -11.250000 96 115 169
-1.593750 0.437500 -11.250000 94 116 174
-1.531250 0.437500 -11.250000 92 116 174
-1.468750 0.437500 -11.250000 92 111 174
-1.406250 0.437500 -11.250000 91 111 171
-1.343750 0.437500 -11.250000 93 112 169
-1.281250 0.437500 -11.250000 91 112 170
-1.218750 0.437500 -11.250000 91 112 169
-1.156250 0.437500 -11.250000 92 114 166
-1.093750 0.437500 -11.250000 91 114 167
-1.031250 0.437500 -11.250000 91 114 167
-0.968750 0.437500 -11.250000 91 112 166
-0.906250 0.437500 -11.250000 90 113 165
-0.843750 0.437500 -11.250000 91 112 164
-0.781250 0.437500 -11.250000 95 109 161
-0.718750 0.437500 -11.250000 97 106 157
-0.656250 0.437500 -11.250000 94 104 157
-0.593750 0.437500 -11.250000 88 102 160
-0.531250 0.437500 -11.250000 89 106 167
-0.468750 0.437500 -11.250000 94 110 170
-0.406250 0.437500 -11.250000 97 114 169
-0.343750 0.437500 -11.250000 96 112 168
0.531250 0.437500 -11.250000 191 183 173
0.593750 0.437500 -11.250000 190 184 174
0.656250 0.437500 -11.250000 190 184 174
0.718750 0.437500 -11.250000 191 184 174
0.724638 0.405797 -10.434783 190 186 175
0.750000 0.388889 -10.000000 192 187 175
0.797251 0.384880 -9.896907 192 189 173
0.901818 0.407273 -10.472727 193 189 176
1.031250 0.437500 -11.250000 192 189 177
1.093750 0.437500 -11.250000 192 189 174
1.156250 0.437500 -11.250000 138 118 108
1.218750 0.437500 -11.250000 86 38 38
1.281250 0.437500 -11.250000 91 36 31
1.343750 0.437500 -11.250000 73 35 24
1.406250 0.437500 -11.250000 70 36 26
1.468750 0.437500 -11.250000 67 35 23
1.531250 0.437500 -11.250000 65 33 24
1.533835 0.421053 -10.827067 68 32 27
1.588015 0.419476 -10.786517 74 33 25
1.635688 0.416357 -10.706320 75 33 25
1.695167 0.416357 -10.706320 77 34 27
1.754647 0.416357 -10.706320 71 34 25
1.814126 0.416357 -10.706320 70 32 26
1.866667 0.414815 -10.666667 69 32 27
1.925926 0.414815 -10.666667 67 32 27
1.985185 0.414815 -10.666667 63 32 25
2.052045 0.416357 -10.706320 69 32 28
2.119403 0.417910 -10.746268 75 30 26
2.179105 0.417910 -10.746268 72 30 27
2.230483 0.416357 -10.706320 71 30 27
2.289963 0.416357 -10.706320 71 30 25
2.340741 0.414815 -10.666667 67 29 27
2.400000 0.414815 -10.666667 63 29 27
2.450185 0.413284 -10.627306 63 29 23
2.509225 0.413284 -10.627306 64 29 25
2.558824 0.411765 -10.588235 67 30 24
2.617647 0.411765 -10.588235 72 30 27
2.676471 0.411765 -10.588235 72 30 28
2.735294 0.411765 -10.588235 70 31 27
2.794118 0.411765 -10.588235 70 32 27
2.852941 0.411765 -10.588235 67 31 29
2.911765 0.411765 -10.588235 68 30 28
2.970588 0.411765 -10.588235 65 31 26
3.029412 0.411765 -10.588235 70 31 26
3.065693 0.408759 -10.510949 76 31 27
3.124088 0.408759 -10.510949 77 32 26
3.194139 0.410256 -10.549451 76 32 28
3.240876 0.408759 -10.510949 73 32 25
3.299270 0.408759 -10.510949 69 31 28
3.345454 0.407273 -10.472727 67 33 26
3.403636 0.407273 -10.472727 67 34 26
3.449275 0.405797 -10.434783 71 33 26
3.507246 0.405797 -10.434783 79 35 28
3.565217 0.405797 -10.434783 91 41 35
3.623188 0.405797 -10.434783 119 53 50
3.681159 0.405797 -10.434783 147 60 66
3.739130 0.405797 -10.434783 156 61 69
3.810909 0.407273 -10.472727 160 62 67
3.869091 0.407273 -10.472727 159 61 68
3.941606 0.408759 -10.510949 156 61 69
4.000000 0.408759 -10.510949 153 62 68
4.058394 0.408759 -10.510949 154 63 69
4.116788 0.408759 -10.510949 154 63 66
4.175182 0.408759 -10.510949 154 65 67
4.233577 0.408759 -10.510949 158 78 75
4.291971 0.408759 -10.510949 170 116 107
4.366301 0.410256 -10.549451 195 172 164
4.441176 0.411765 -10.588235 217 214 212
4.601504 0.421053 -10.827067 227 229 234
4.843750 0.437500 -11.250000 224 226 232
4.906250 0.437500 -11.250000 202 204 206
4.968750 0.437500 -11.250000 192 195 190
5.031250 0.437500 -11.250000 216 220 221
5.093750 0.437500 -11.250000 192 199 190
5.156250 0.437500 -11.250000 200 206 194
5.218750 0.437500 -11.250000 202 206 199
5.281250 0.437500 -11.250000 179 189 175
5.343750 0.437500 -11.250000 140 160 124
5.406250 0.437500 -11.250000 136 158 113
5.468750 0.437500 -11.250000 148 167 127
5.531250 0.437500 -11.250000 142 157 115
5.593750 0.437500 -11.250000 159 172 130
5.656250 0.437500 -11.250000 153 163 133
5.718750 0.437500 -11.250000 132 142 107
5.781250 0.437500 -11.250000 157 168 133
5.843750 0.437500 -11.250000 154 167 133
5.906250 0.437500 -11.250000 164 164 135
5.968750 0.437500 -11.250000 143 95 93
6.031250 0.437500 -11.250000 133 62 57
6.093750 0.437500 -11.250000 135 60 55
6.156250 0.437500 -11.250000 130 66 56
6.218750 0.437500 -11.250000 126 101 69
6.281250 0.437500 -11.250000 123 135 92
6.343750 0.437500 -11.250000 109 123 82
6.406250 0.437500 -11.250000 121 135 85
6.468750 0.437500 -11.250000 147 160 118
6.531250 0.437500 -11.250000 134 145 111
6.593750 0.437500 -11.250000 119 132 94
6.656250 0.437500 -11.250000 108 121 76
6.718750 0.437500 -11.250000 123 133 87
6.781250 0.437500 -11.250000 150 160 116
6.843750 0.437500 -11.250000 181 186 161
6.906250 0.437500 -11.250000 171 172 152
-1.212938 0.064690 -1.940701 75 47 53
-1.143590 0.061538 -1.846154 86 52 62
-1.133333 0.061538 -1.846154 115 65 84
-1.126688 0.061736 -1.852090 134 76 93
-1.115681 0.061697 -1.850900 129 76 85
-1.101858 0.061499 -1.844971 113 69 74
-1.088123 0.061303 -1.839080 101 63 66
-1.076531 0.061224 -1.836735 89 56 65
-1.065647 0.061185 -1.835564 86 54 66
-1.051429 0.060952 -1.828571 87 55 66
-1.037975 0.060759 -1.822785 87 55 68
-6.031250 0.375000 -11.250000 103 62 73
-5.968750 0.375000 -11.250000 126 77 88
-5.906250 0.375000 -11.250000 178 151 157
-5.540741 0.355556 -10.666667 198 193 179
-5.461255 0.354244 -10.627306 188 187 166
-5.402214 0.354244 -10.627306 183 181 159
-5.362963 0.355556 -10.666667 184 177 159
-5.323420 0.356877 -10.706320 181 173 151
-5.263940 0.356877 -10.706320 179 170 146
-5.223881 0.358209 -10.746268 181 170 148
-5.164179 0.358209 -10.746268 183 169 150
-5.123596 0.359551 -10.786517 183 169 148
-5.063671 0.359551 -10.786517 184 172 150
-5.003746 0.359551 -10.786517 185 160 122
-4.925373 0.358209 -10.746268 190 127 38
-4.847584 0.356877 -10.706320 202 123 12
-4.788104 0.356877 -10.706320 206 114 9
-4.728624 0.356877 -10.706320 203 109 11
-4.704120 0.359551 -10.786517 204 109 10
-4.843750 0.375000 -11.250000 207 101 9
-4.781250 0.375000 -11.250000 211 88 11
-4.718750 0.375000 -11.250000 210 84 14
-4.656250 0.375000 -11.250000 212 80 18
-4.593750 0.375000 -11.250000 216 83 22
-4.531250 0.375000 -11.250000 214 104 23
-4.468750 0.375000 -11.250000 206 134 29
-4.406250 0.375000 -11.250000 146 135 37
-4.343750 0.375000 -11.250000 96 95 36
-4.281250 0.375000 -11.250000 95 69 39
-4.218750 0.375000 -11.250000 94 69 40
-4.156250 0.375000 -11.250000 94 67 39
-4.093750 0.375000 -11.250000 94 67 35
-4.031250 0.375000 -11.250000 100 73 36
-3.968750 0.375000 -11.250000 100 77 36
-3.906250 0.375000 -11.250000 97 75 37
-3.843750 0.375000 -11.250000 94 74 43
-3.781250 0.375000 -11.250000 94 79 51
-3.531250 0.375000 -11.250000 65 72 119
-3.468750 0.375000 -11.250000 60 72 128
-3.406250 0.375000 -11.250000 62 77 130
-2.968750 0.375000 -11.250000 99 95 103
-2.906250 0.375000 -11.250000 101 96 103
-2.843750 0.375000 -11.250000 103 100 103
-2.781250 0.375000 -11.250000 103 102 106
-2.718750 0.375000 -11.250000 109 109 112
-2.593750 0.375000 -11.250000 95 112 152
-2.531250 0.375000 -11.250000 101 116 148
-2.468750 0.375000 -11.250000 102 118 142
-2.406250 0.375000 -11.250000 100 116 148
-2.343750 0.375000 -11.250000 95 116 164
-2.281250 0.375000 -11.250000 94 117 172
-2.218750 0.375000 -11.250000 93 116 171
-2.156250 0.375000 -11.250000 95 115 166
-2.093750 0.375000 -11.250000 97 116 164
-2.031250 0.375000 -11.250000 95 117 166
-1.968750 0.375000 -11.250000 93 117 171
-1.906250 0.375000 -11.250000 93 117 171
-1.843750 0.375000 -11.250000 96 117 171
-1.781250 0.375000 -11.250000 93 116 171
-1.718750 0.375000 -11.250000 94 114 168
-1.656250 0.375000 -11.250000 94 114 170
-1.593750 0.375000 -11.250000 93 116 173
-1.531250 0.375000 -11.250000 91 114 176
-1.468750 0.375000 -11.250000 91 110 175
-1.406250 0.375000 -11.250000 88 108 171
-1.343750 0.375000 -11.250000 90 110 170
-1.281250 0.375000 -11.250000 88 108 170
-1.218750 0.375000 -11.250000 87 109 168
-1.156250 0.375000 -11.250000 88 111 169
-1.093750 0.375000 -11.250000 89 111 168
-1.031250 0.375000 -11.250000 90 111 165
-0.968750 0.375000 -11.250000 92 111 166
-0.906250 0.375000 -11.250000 92 113 165
-0.843750 0.375000 -11.250000 93 112 163
-0.781250 0.375000 -11.250000 114 99 132
-0.718750 0.375000 -11.250000 141 79 101
-0.656250 0.375000 -11.250000 142 77 98
-0.593750 0.375000 -11.250000 130 84 117
-0.531250 0.375000 -11.250000 150 132 165
-0.468750 0.375000 -11.250000 182 182 204
-0.406250 0.375000 -11.250000 181 182 202
-0.343750 0.375000 -11.250000 176 177 197
0.468750 0.375000 -11.250000 194 188 181
0.531250 0.375000 -11.250000 193 188 176
0.593750 0.375000 -11.250000 193 187 176
0.656250 0.375000 -11.250000 194 187 177
0.718750 0.375000 -11.250000 194 188 175
0.781250 0.375000 -11.250000 194 188 176
0.843750 0.375000 -11.250000 196 188 178
0.906250 0.375000 -11.250000 195 189 177
0.968750 0.375000 -11.250000 194 189 177
1.031250 0.375000 -11.250000 193 189 178
1.093750 0.375000 -11.250000 187 181 167
1.156250 0.375000 -11.250000 114 88 79
1.218750 0.375000 -11.250000 85 35 30
1.281250 0.375000 -11.250000 87 36 30
1.343750 0.375000 -11.250000 72 35 23
1.406250 0.375000 -11.250000 70 35 24
1.468750 0.375000 -11.250000 66 33 28
1.531250 0.375000 -11.250000 67 32 28
1.593750 0.375000 -11.250000 73 32 28
1.588015 0.359551 -10.786517 77 33 26
1.635688 0.356877 -10.706320 76 35 21
1.695167 0.356877 -10.706320 78 34 25
1.761194 0.358209 -10.746268 73 32 26
1.820896 0.358209 -10.746268 70 32 25
1.880597 0.358209 -10.746268 67 34 24
1.933086 0.356877 -10.706320 68 33 27
1.992565 0.356877 -10.706320 69 32 27
2.052045 0.356877 -10.706320 75 31 29
2.119403 0.358209 -10.746268 77 30 25
2.179105 0.358209 -10.746268 73 31 21
2.238806 0.358209 -10.746268 71 32 25
2.289963 0.356877 -10.706320 68 30 27
2.349442 0.356877 -10.706320 63 29 29
2.400000 0.355556 -10.666667 64 29 26
2.459259 0.355556 -10.666667 66 29 24
2.500000 0.352941 -10.588235 67 28 27
2.558824 0.352941 -10.588235 68 29 28
2.617647 0.352941 -10.588235 72 29 25
2.676471 0.352941 -10.588235 71 30 26
2.735294 0.352941 -10.588235 71 30 25
2.783883 0.351648 -10.549451 68 30 24
2.842491 0.351648 -10.549451 65 30 30
2.911765 0.352941 -10.588235 68 29 32
2.970588 0.352941 -10.588235 67 30 29
3.007299 0.350365 -10.510949 73 30 29
3.065693 0.350365 -10.510949 77 30 27
3.124088 0.350365 -10.510949 78 31 24
