ply
format ascii 1.0
element vertex 1264
property float x
property float y
property float z
property uchar red
property uchar green
property uchar blue
end_header
3.790524 1.915212 -6.128678 81 77 63
-1.444967 0.707432 -2.311947 46 57 57
-1.428571 0.706767 -2.309775 47 62 65
-1.401677 0.700839 -2.290401 46 63 66
-1.385475 0.700186 -2.288268 48 64 68
-1.833753 0.947103 -3.095214 53 66 69
-1.340782 0.700186 -2.288268 54 67 70
-1.324651 0.699535 -2.286140 57 69 71
-4.062500 2.937500 -9.600000 11 20 14
-4.000000 2.937500 -9.600000 12 21 15
-3.937500 2.937500 -9.600000 11 21 15
-3.875000 2.937500 -9.600000 12 23 15
-3.812500 2.937500 -9.600000 13 24 16
-3.750000 2.937500 -9.600000 14 25 17
-3.687500 2.937500 -9.600000 14 25 17
-3.625000 2.937500 -9.600000 15 25 17
-3.562500 2.937500 -9.600000 15 25 17
-3.500000 2.937500 -9.600000 15 26 17
-3.437500 2.937500 -9.600000 15 27 18
-3.375000 2.937500 -9.600000 16 27 18
-3.312500 2.937500 -9.600000 16 27 18
-3.250000 2.937500 -9.600000 17 27 18
-3.187500 2.937500 -9.600000 16 27 18
-0.717241 2.593103 -8.474483 21 32 20
-0.662069 2.593103 -8.474483 20 31 20
-0.608997 2.602076 -8.503806 19 29 20
-0.553633 2.602076 -8.503806 19 29 20
-0.500000 2.611111 -8.533334 20 30 20
-0.444444 2.611111 -8.533334 20 30 21
-0.387543 2.602076 -8.503806 20 30 21
-0.332180 2.602076 -8.503806 21 31 20
-0.166667 2.611111 -8.533334 21 31 20
-0.109589 2.575342 -8.416439 21 30 20
0.250000 2.937500 -9.600000 20 30 20
0.312500 2.937500 -9.600000 20 30 20
0.375000 2.937500 -9.600000 21 30 20
0.437500 2.937500 -9.600000 21 30 20
0.500000 2.937500 -9.600000 21 30 19
0.562500 2.937500 -9.600000 20 31 20
0.597015 2.805970 -9.170150 21 30 20
0.687500 2.937500 -9.600000 21 30 20
0.750000 2.937500 -9.600000 21 30 20
0.812500 2.937500 -9.600000 21 30 20
0.875000 2.937500 -9.600000 20 29 20
0.937500 2.937500 -9.600000 21 30 20
1.000000 2.937500 -9.600000 21 30 20
1.062500 2.937500 -9.600000 21 30 20
1.070632 2.795539 -9.136060 21 30 20
1.121771 2.774908 -9.068635 21 29 19
1.176471 2.764706 -9.035295 20 29 19
1.375000 2.937500 -9.600000 20 29 19
1.437500 2.937500 -9.600000 20 29 19
1.500000 2.937500 -9.600000 20 29 19
1.562500 2.937500 -9.600000 20 29 19
1.625000 2.937500 -9.600000 20 29 19
1.687500 2.937500 -9.600000 21 29 20
1.750000 2.937500 -9.600000 20 29 19
1.875000 2.937500 -9.600000 20 29 20
1.937500 2.937500 -9.600000 20 29 19
1.882353 2.764706 -9.035295 21 29 20
1.941176 2.764706 -9.035295 21 29 19
2.125000 2.937500 -9.600000 22 29 19
2.375000 2.937500 -9.600000 12 21 14
2.437500 2.937500 -9.600000 12 21 14
2.500000 2.937500 -9.600000 12 21 14
2.562500 2.937500 -9.600000 12 21 14
2.625000 2.937500 -9.600000 12 20 14
2.687500 2.937500 -9.600000 11 20 13
2.750000 2.937500 -9.600000 11 22 15
2.656826 2.774908 -9.068635 16 33 31
2.705882 2.764706 -9.035295 20 41 43
3.312500 2.937500 -9.600000 22 45 50
0.753247 0.610390 -1.994805 88 90 78
0.766234 0.610390 -1.994805 116 104 89
0.776699 0.608414 -1.988350 105 94 80
0.751347 0.578907 -1.891917 96 88 76
0.763664 0.578907 -1.891917 89 84 71
0.772414 0.576245 -1.883218 92 87 73
3.959866 2.515050 -8.219398 103 97 81
3.947368 2.473684 -8.084210 119 107 94
3.973856 2.457516 -8.031373 113 103 90
3.974194 2.425807 -7.927742 117 106 92
3.949367 2.379747 -7.777215 111 99 88
3.925466 2.335404 -7.632298 105 97 84
3.975155 2.335404 -7.632298 97 89 77
5.274725 2.754579 -9.002198 98 90 79
5.372694 2.774908 -9.068635 103 92 83
3.680000 1.880000 -6.144000 96 86 78
5.511111 2.785185 -9.102222 88 81 72
3.750623 1.875312 -6.128678 95 87 76
3.790524 1.875312 -6.128678 87 78 69
-1.447691 0.693685 -2.316305 48 58 59
-1.429915 0.692380 -2.311947 46 61 64
-1.414864 0.692380 -2.311947 46 62 66
-1.874055 0.926952 -3.095214 47 64 68
-1.866667 0.943590 -3.150769 50 64 68
-1.340782 0.685289 -2.288268 52 65 68
-1.308824 0.676471 -2.258824 56 68 71
-1.294118 0.676471 -2.258824 60 71 73
-4.125000 2.875000 -9.600000 7 15 12
-4.062500 2.875000 -9.600000 8 16 12
-3.835206 2.756554 -9.204494 9 16 13
-3.937500 2.875000 -9.600000 9 17 13
-3.875000 2.875000 -9.600000 9 17 13
-3.812500 2.875000 -9.600000 9 18 13
-3.750000 2.875000 -9.600000 10 18 14
-3.687500 2.875000 -9.600000 10 18 14
-3.625000 2.875000 -9.600000 11 18 14
-3.562500 2.875000 -9.600000 11 18 14
-3.500000 2.875000 -9.600000 10 18 14
-3.437500 2.875000 -9.600000 10 19 14
-3.375000 2.875000 -9.600000 11 19 14
-3.312500 2.875000 -9.600000 11 19 15
-3.250000 2.875000 -9.600000 11 19 15
-3.187500 2.875000 -9.600000 12 19 15
-3.062500 2.875000 -9.600000 12 20 16
-0.555556 2.555556 -8.533334 12 20 15
-0.500000 2.555556 -8.533334 13 21 15
-0.444444 2.555556 -8.533334 13 21 15
-0.387543 2.546713 -8.503806 12 20 15
-0.332180 2.546713 -8.503806 13 20 15
0.250000 2.875000 -9.600000 13 21 15
0.312500 2.875000 -9.600000 13 21 15
0.360902 2.766917 -9.239099 13 21 16
0.437500 2.875000 -9.600000 14 22 16
0.477612 2.746269 -9.170150 14 22 15
0.562500 2.875000 -9.600000 14 22 16
0.590406 2.715867 -9.068635 15 22 16
0.651852 2.725926 -9.102222 14 21 16
0.750000 2.875000 -9.600000 14 22 16
0.812500 2.875000 -9.600000 15 23 17
0.875000 2.875000 -9.600000 15 23 16
0.937500 2.875000 -9.600000 16 23 16
1.000000 2.875000 -9.600000 16 23 16
1.062500 2.875000 -9.600000 16 23 17
1.070632 2.736059 -9.136060 15 23 17
1.130112 2.736059 -9.136060 15 23 17
1.189591 2.736059 -9.136060 15 23 17
1.375000 2.875000 -9.600000 16 24 17
1.437500 2.875000 -9.600000 16 24 17
1.500000 2.875000 -9.600000 17 24 17
1.562500 2.875000 -9.600000 17 24 18
1.625000 2.875000 -9.600000 18 25 18
1.687500 2.875000 -9.600000 18 25 18
1.750000 2.875000 -9.600000 17 25 17
1.875000 2.875000 -9.600000 17 25 18
1.882353 2.705882 -9.035295 19 26 19
1.941176 2.705882 -9.035295 19 26 18
2.437500 2.875000 -9.600000 7 14 11
2.500000 2.875000 -9.600000 7 14 11
2.562500 2.875000 -9.600000 6 13 10
2.625000 2.875000 -9.600000 6 14 10
2.656826 2.715867 -9.068635 13 32 32
2.705882 2.705882 -9.035295 18 42 48
0.719811 0.580900 -1.939700 31 53 51
0.751417 0.595951 -1.989960 93 94 81
0.764372 0.595951 -1.989960 119 106 92
0.740741 0.567901 -1.896296 110 97 84
0.751347 0.566590 -1.891917 95 86 75
0.758410 0.562691 -1.878899 90 82 72
0.769466 0.561832 -1.876031 87 80 70
3.959866 2.461539 -8.219398 106 97 84
3.947368 2.421053 -8.084210 124 111 99
3.935275 2.381877 -7.953398 126 111 99
3.948718 2.358974 -7.876924 127 112 99
3.949367 2.329114 -7.777215 119 105 94
3.950000 2.300000 -7.680000 108 97 86
4.000000 2.300000 -7.680000 109 96 86
5.187500 2.875000 -9.600000 111 97 87
4.239748 2.321767 -7.752682 108 96 86
4.290221 2.321767 -7.752682 117 104 91
5.058824 2.705882 -9.035295 122 108 95
5.195572 2.715867 -9.068635 111 99 88
5.254612 2.715867 -9.068635 118 105 94
5.313653 2.715867 -9.068635 121 107 95
5.453184 2.756554 -9.204494 124 109 98
5.533834 2.766917 -9.239099 121 106 97
-1.449057 0.679245 -2.318491 49 58 58
-1.429915 0.677328 -2.311947 45 60 62
-1.417531 0.678605 -2.316305 43 60 63
-1.907692 0.923077 -3.150769 44 61 64
-1.947090 0.952381 -3.250794 45 61 64
-1.866667 0.923077 -3.150769 47 62 65
-1.343284 0.671642 -2.292537 49 64 66
-1.312442 0.663594 -2.265069 53 66 68
-1.297696 0.663594 -2.265069 59 71 72
-4.125000 2.812500 -9.600000 7 14 14
-3.866171 2.676580 -9.136060 7 15 15
-3.792593 2.666667 -9.102222 8 16 17
-3.937500 2.812500 -9.600000 8 17 17
-3.875000 2.812500 -9.600000 8 16 14
-3.812500 2.812500 -9.600000 8 16 15
-3.609023 2.706767 -9.239099 8 17 16
-3.548872 2.706767 -9.239099 9 18 18
-3.488722 2.706767 -9.239099 9 17 17
-3.562500 2.812500 -9.600000 9 17 16
-3.500000 2.812500 -9.600000 9 17 16
-3.437500 2.812500 -9.600000 9 17 17
-3.375000 2.812500 -9.600000 9 18 18
-3.312500 2.812500 -9.600000 9 18 16
-3.250000 2.812500 -9.600000 10 18 15
-3.000000 2.647059 -9.035295 11 20 16
-2.919708 2.627737 -8.969343 12 20 16
-2.703448 2.482759 -8.474483 12 21 17
-2.568562 2.408027 -8.219398 17 25 21
-0.444444 2.500000 -8.533334 12 20 15
-0.387543 2.491349 -8.503806 11 19 15
-0.332180 2.491349 -8.503806 12 19 14
0.250000 2.812500 -9.600000 12 20 14
0.312500 2.812500 -9.600000 12 20 14
0.375000 2.812500 -9.600000 12 20 15
0.437500 2.812500 -9.600000 12 21 15
0.477612 2.686567 -9.170150 13 21 15
0.535316 2.676580 -9.136060 13 21 15
0.590406 2.656826 -9.068635 14 21 15
0.647059 2.647059 -9.035295 13 21 16
0.711111 2.666667 -9.102222 13 20 15
0.812500 2.812500 -9.600000 14 21 15
0.875000 2.812500 -9.600000 14 22 15
0.937500 2.812500 -9.600000 14 22 15
1.000000 2.812500 -9.600000 14 22 16
1.062500 2.812500 -9.600000 14 22 15
1.070632 2.676580 -9.136060 14 22 15
1.130112 2.676580 -9.136060 13 21 15
1.189591 2.676580 -9.136060 14 22 15
1.375000 2.812500 -9.600000 15 22 16
1.437500 2.812500 -9.600000 15 22 16
1.500000 2.812500 -9.600000 15 22 16
1.562500 2.812500 -9.600000 14 22 16
1.625000 2.812500 -9.600000 14 22 16
1.687500 2.812500 -9.600000 15 22 16
1.750000 2.812500 -9.600000 15 22 16
1.693431 2.627737 -8.969343 14 21 15
1.751825 2.627737 -8.969343 13 21 14
0.701644 0.563821 -1.924511 21 44 50
0.713057 0.562940 -1.921501 33 54 51
0.725000 0.562500 -1.920000 96 96 83
0.731783 0.558140 -1.905116 122 109 93
0.740170 0.555127 -1.894834 123 108 94
0.750769 0.553846 -1.890462 117 102 91
0.757252 0.549618 -1.876031 116 102 91
0.764795 0.546282 -1.864643 115 101 90
0.776935 0.546282 -1.864643 117 103 91
3.973154 2.416107 -8.246981 124 111 98
3.934426 2.360656 -8.057705 128 115 101
3.935275 2.330097 -7.953398 129 115 101
3.948718 2.307692 -7.876924 129 114 101
3.961905 2.285714 -7.801905 126 112 99
3.987382 2.271293 -7.752682 121 108 94
4.037855 2.271293 -7.752682 122 109 96
4.101266 2.278481 -7.777215 122 109 96
4.125786 2.264151 -7.728302 121 108 95
4.176101 2.264151 -7.728302 122 108 95
4.226415 2.264151 -7.728302 120 107 94
4.276730 2.264151 -7.728302 120 107 93
4.340694 2.271293 -7.752682 120 107 93
5.117647 2.647059 -9.035295 121 107 94
5.195572 2.656826 -9.068635 122 108 95
5.254612 2.656826 -9.068635 124 110 97
5.393259 2.696629 -9.204494 118 107 94
5.473684 2.706767 -9.239099 119 108 95
5.750000 2.812500 -9.600000 117 106 94
-1.447691 0.663525 -2.316305 41 49 46
-1.432611 0.663525 -2.316305 37 49 48
-1.989418 0.931217 -3.250794 36 49 48
-1.950197 0.922674 -3.220970 37 51 51
-1.929227 0.922674 -3.220970 39 53 53
-1.893368 0.915475 -3.195839 44 57 57
-1.839080 0.899106 -3.138697 46 58 59
-1.313653 0.649446 -2.267159 47 58 59
-1.298893 0.649446 -2.267159 49 61 60
-1.068425 0.580379 -2.026051 42 50 49
-1.055235 0.580379 -2.026051 10 16 15
-1.047225 0.583264 -2.036123 6 13 12
-4.125000 2.750000 -9.600000 9 19 27
-3.851852 2.607407 -9.102222 10 21 30
-3.778598 2.597786 -9.068635 11 22 32
-3.669173 2.646616 -9.239099 10 20 28
-3.555556 2.607407 -9.102222 10 22 30
-3.509294 2.617100 -9.136060 10 22 31
-3.462687 2.626866 -9.170150 9 20 28
-3.415730 2.636704 -9.204494 9 20 27
-3.330855 2.617100 -9.136060 10 21 30
-3.271375 2.617100 -9.136060 10 21 32
-3.211896 2.617100 -9.136060 11 23 32
-3.117647 2.588235 -9.035295 9 19 23
-3.058824 2.588235 -9.035295 10 19 17
-2.924731 2.523298 -8.808602 11 19 16
-2.807018 2.470176 -8.623158 11 19 16
-2.622074 2.354515 -8.219398 14 22 18
-2.534653 2.323432 -8.110891 29 33 29
-2.481848 2.323432 -8.110891 30 34 29
-0.442907 2.435986 -8.503806 18 25 21
-0.387543 2.435986 -8.503806 12 19 15
0.360902 2.646616 -9.239099 9 18 13
0.475836 2.617100 -9.136060 15 22 17
0.531365 2.597786 -9.068635 12 20 14
0.588235 2.588235 -9.035295 14 22 17
0.644689 2.578755 -9.002198 16 23 18
0.680851 2.496454 -8.714894 15 21 17
0.719723 2.435986 -8.503806 11 19 14
1.000000 2.750000 -9.600000 13 20 15
0.816817 2.114114 -7.380180 15 21 16
1.058824 2.588235 -9.035295 15 21 16
1.130112 2.617100 -9.136060 11 18 13
1.375000 2.750000 -9.600000 13 21 15
1.437500 2.750000 -9.600000 13 21 15
1.500000 2.750000 -9.600000 15 21 16
1.562500 2.750000 -9.600000 16 22 18
1.625000 2.750000 -9.600000 11 18 14
1.687500 2.750000 -9.600000 11 18 13
1.750000 2.750000 -9.600000 11 18 13
1.380952 2.095238 -7.314286 10 17 13
1.399417 2.052478 -7.165015 14 20 16
1.799392 2.139818 -7.469909 7 14 11
0.700547 0.550430 -1.921501 19 42 47
0.711388 0.549142 -1.917005 33 52 48
0.722179 0.547860 -1.912529 98 97 83
0.730650 0.544892 -1.902167 122 110 93
0.739030 0.541955 -1.891917 126 112 96
0.749041 0.540292 -1.886109 124 111 96
0.756674 0.536995 -1.874600 123 109 96
0.763636 0.533333 -1.861818 122 109 95
0.775758 0.533333 -1.861818 122 109 95
4.027211 2.394558 -8.359184 114 104 90
3.934426 2.308197 -8.057705 114 105 90
3.935275 2.278317 -7.953398 114 105 90
3.974194 2.270968 -7.927742 121 110 96
4.000000 2.256410 -7.876924 120 107 95
4.064309 2.263666 -7.902251 108 98 85
4.115756 2.263666 -7.902251 107 99 85
4.167202 2.263666 -7.902251 107 98 84
4.151899 2.227848 -7.777215 105 96 82
4.270096 2.263666 -7.902251 105 96 83
4.321543 2.263666 -7.902251 103 94 80
4.290221 2.220820 -7.752682 104 95 81
4.424438 2.263666 -7.902251 107 97 83
5.117647 2.588235 -9.035295 115 103 89
5.500000 2.750000 -9.600000 116 104 91
5.562500 2.750000 -9.600000 119 105 93
5.625000 2.750000 -9.600000 115 102 90
5.687500 2.750000 -9.600000 110 98 87
5.750000 2.750000 -9.600000 102 94 82
-1.449057 0.649057 -2.318491 48 50 48
-2.013387 0.921017 -3.289960 47 51 50
-1.984000 0.917333 -3.276800 50 54 53
-1.947090 0.910053 -3.250794 51 58 59
-1.943925 0.918558 -3.281175 64 70 71
-1.298893 0.634686 -2.267159 63 67 67
-1.263158 0.624319 -2.230127 47 53 51
-1.238524 0.619262 -2.212061 35 47 46
-1.132390 0.572856 -2.046295 56 68 70
-1.091514 0.572379 -2.044592 61 70 72
-1.072848 0.569536 -2.034437 42 50 50
-1.055235 0.567189 -2.026051 10 17 15
-1.046358 0.569536 -2.034437 6 13 12
-1.038270 0.572379 -2.044592 5 13 13
-0.928793 0.532508 -1.902167 11 23 34
-4.187500 2.687500 -9.600000 9 21 30
-4.125000 2.687500 -9.600000 10 23 33
-3.880597 2.567164 -9.170150 11 24 35
-3.820895 2.567164 -9.170150 11 23 35
-3.628253 2.557621 -9.136060 11 23 34
-3.555556 2.548148 -9.102222 11 23 35
-3.496296 2.548148 -9.102222 11 23 35
-3.449814 2.557621 -9.136060 10 21 32
-3.402985 2.567164 -9.170150 10 22 32
-3.330855 2.557621 -9.136060 11 24 35
-3.259259 2.548148 -9.102222 11 24 36
-3.176471 2.529412 -9.035295 11 25 36
-3.117647 2.529412 -9.035295 9 20 27
-3.036496 2.510949 -8.969343 10 19 19
-2.924731 2.465950 -8.808602 11 19 16
-2.758621 2.372414 -8.474483 11 19 15
-2.604651 2.285714 -8.164784 16 24 19
-2.534653 2.270627 -8.110891 35 40 34
-2.481848 2.270627 -8.110891 40 43 37
0.475836 2.557621 -9.136060 31 32 28
0.529412 2.529412 -9.035295 20 23 18
0.588235 2.529412 -9.035295 28 31 25
0.642336 2.510949 -8.969343 33 36 30
0.664360 2.380623 -8.503806 30 33 28
0.714777 2.364261 -8.445361 16 21 17
0.769759 2.364261 -8.445361 16 21 17
0.830450 2.380623 -8.503806 17 22 17
0.885813 2.380623 -8.503806 19 24 18
0.816817 2.066066 -7.380180 24 29 23
1.003484 2.397213 -8.563066 34 36 31
1.197279 2.340136 -8.359184 12 19 14
1.243243 2.324324 -8.302703 18 24 18
1.271523 2.278146 -8.137749 32 35 30
1.562500 2.687500 -9.600000 43 42 40
1.625000 2.687500 -9.600000 23 23 21
1.687500 2.687500 -9.600000 19 22 17
1.333333 2.047619 -7.314286 20 23 18
1.352770 2.005831 -7.165015 23 26 21
1.399417 2.005831 -7.165015 34 37 32
1.446064 2.005831 -7.165015 35 36 32
1.523810 2.047619 -7.314286 24 25 21
1.571429 2.047619 -7.314286 24 26 21
1.628742 2.059880 -7.358084 37 37 33
1.691843 2.078550 -7.424774 24 25 23
1.740181 2.078550 -7.424774 27 29 26
1.793939 2.084848 -7.447273 29 28 26
1.848024 2.091185 -7.469909 14 17 15
1.896657 2.091185 -7.469909 8 14 12
1.887906 2.029499 -7.249558 8 13 11
1.935103 2.029499 -7.249558 6 13 11
0.700547 0.537920 -1.921501 18 38 41
0.710834 0.536243 -1.915511 32 46 37
0.718266 0.532508 -1.902167 101 98 83
0.726713 0.529638 -1.891917 121 109 93
0.736761 0.528012 -1.886109 126 112 96
0.744470 0.524790 -1.874600 123 110 96
0.754947 0.523592 -1.870320 123 109 96
0.764795 0.522003 -1.864643 122 108 95
0.775758 0.521212 -1.861818 121 108 94
0.787879 0.521212 -1.861818 121 108 94
4.081633 2.340136 -8.359184 110 99 86
3.986885 2.255738 -8.057705 113 102 88
4.013029 2.241042 -8.005212 123 110 96
4.038835 2.226537 -7.953398 123 108 95
4.077419 2.219355 -7.927742 115 101 89
4.115756 2.212219 -7.902251 113 100 88
4.167202 2.212219 -7.902251 112 99 87
4.218649 2.212219 -7.902251 112 98 86
4.283871 2.219355 -7.927742 112 98 87
4.321543 2.212219 -7.902251 113 100 87
4.372990 2.212219 -7.902251 115 102 89
4.482085 2.241042 -8.005212 118 104 91
5.437500 2.687500 -9.600000 119 105 92
5.500000 2.687500 -9.600000 120 107 93
5.562500 2.687500 -9.600000 126 111 98
5.625000 2.687500 -9.600000 127 112 99
5.687500 2.687500 -9.600000 124 109 97
5.750000 2.687500 -9.600000 121 107 95
-1.970549 0.899598 -3.289960 61 66 65
-1.313653 0.619926 -2.267159 77 83 82
-1.277677 0.609800 -2.230127 73 78 76
-1.257453 0.607046 -2.220054 51 57 53
-1.145712 0.559534 -2.046295 33 45 44
-1.128631 0.557676 -2.039502 57 69 71
-1.115353 0.557676 -2.039502 64 75 77
-1.104825 0.559068 -2.044592 64 74 76
-1.091514 0.559068 -2.044592 62 72 73
-1.076412 0.558140 -2.041196 44 52 51
-1.061360 0.557214 -2.037811 10 17 16
-1.049834 0.558140 -2.041196 6 13 13
-1.037406 0.558603 -2.042893 6 13 13
-1.024958 0.559068 -2.044592 6 14 17
-1.009967 0.558140 -2.041196 9 19 29
-0.928793 0.520124 -1.902167 11 23 35
-4.062500 2.625000 -9.600000 13 25 36
-3.614815 2.488889 -9.102222 12 24 35
-3.555556 2.488889 -9.102222 14 25 37
-3.509294 2.498141 -9.136060 15 25 38
-3.475655 2.516854 -9.204494 10 22 33
-3.415730 2.516854 -9.204494 9 22 32
-3.343284 2.507463 -9.170150 12 25 36
-3.259259 2.488889 -9.102222 14 26 37
-3.176471 2.470588 -9.035295 14 26 38
-3.117647 2.470588 -9.035295 10 21 29
-3.058824 2.470588 -9.035295 9 19 21
-2.978102 2.452555 -8.969343 10 19 18
-2.846975 2.391459 -8.745908 11 19 16
-2.694158 2.309278 -8.445361 13 21 17
-2.551495 2.232558 -8.164784 21 29 22
0.336336 2.018018 -7.380180 42 42 34
0.383234 2.011976 -7.358084 59 53 47
0.429851 2.005970 -7.336120 63 54 46
0.477612 2.005970 -7.336120 63 56 48
0.606897 2.317241 -8.474483 46 46 39
0.664360 2.325259 -8.503806 49 47 40
0.717241 2.317241 -8.474483 55 49 39
0.775087 2.325259 -8.503806 63 54 44
0.830450 2.325259 -8.503806 69 58 47
0.891986 2.341463 -8.563066 65 55 45
0.947735 2.341463 -8.563066 40 41 32
1.006993 2.349650 -8.593007 54 53 46
1.189189 2.270270 -8.302703 16 20 15
1.222591 2.232558 -8.164784 20 26 19
1.263158 2.210526 -8.084210 45 49 38
1.333333 2.000000 -7.314286 68 58 49
1.360704 1.970675 -7.207038 64 56 47
1.399417 1.959184 -7.165015 53 52 43
1.450292 1.964912 -7.185965 49 49 40
1.523810 2.000000 -7.314286 59 53 41
1.571429 2.000000 -7.314286 73 62 49
1.628742 2.011976 -7.358084 70 60 50
1.691843 2.030211 -7.424774 38 38 32
1.745455 2.036364 -7.447273 62 59 52
1.840708 1.982301 -7.249558 8 14 12
0.698363 0.523772 -1.915511 18 36 39
0.702619 0.517720 -1.893374 32 45 34
0.710567 0.514548 -1.881776 104 99 84
0.719512 0.512195 -1.873171 122 109 93
0.731707 0.512195 -1.873171 125 112 96
0.742770 0.511416 -1.870320 123 110 96
0.754373 0.511027 -1.868897 123 110 97
0.765376 0.510251 -1.866059 123 109 96
0.774584 0.508321 -1.859002 123 109 95
0.785498 0.507553 -1.856193 121 108 95
4.120401 2.247492 -8.219398 119 107 93
4.065146 2.188925 -8.005212 118 107 93
4.064309 2.160772 -7.902251 119 107 93
4.115756 2.160772 -7.902251 121 108 94
4.221498 2.188925 -8.005212 120 106 94
4.273616 2.188925 -8.005212 114 102 89
4.283871 2.167742 -7.927742 115 102 90
4.280255 2.140127 -7.826752 113 102 88
4.290221 2.119874 -7.752682 112 102 87
4.482085 2.188925 -8.005212 113 101 87
5.437500 2.625000 -9.600000 109 98 85
5.562500 2.625000 -9.600000 115 104 90
5.625000 2.625000 -9.600000 116 105 92
5.687500 2.625000 -9.600000 118 106 93
5.750000 2.625000 -9.600000 121 108 95
5.812500 2.625000 -9.600000 110 100 87
-1.257453 0.592593 -2.220054 53 58 55
-1.145712 0.546211 -2.046295 34 44 44
-1.128631 0.544398 -2.039502 59 70 72
-1.115353 0.544398 -2.039502 67 77 78
-1.104825 0.545757 -2.044592 67 75 77
-1.091514 0.545757 -2.044592 64 73 75
-1.077307 0.545303 -2.042893 47 54 54
-1.064007 0.545303 -2.042893 13 18 17
-1.049834 0.544850 -2.041196 11 18 15
-1.036545 0.544850 -2.041196 12 18 16
-1.023256 0.544850 -2.041196 8 16 18
-1.009129 0.544398 -2.039502 9 19 28
-0.995025 0.543947 -2.037811 25 33 43
-3.655431 2.456929 -9.204494 24 34 41
-3.568773 2.438662 -9.136060 59 57 61
-3.535581 2.456929 -9.204494 58 55 59
-3.625000 2.562500 -9.600000 20 28 37
-3.562500 2.562500 -9.600000 10 22 32
-3.355805 2.456929 -9.204494 29 36 45
-3.259259 2.429630 -9.102222 54 53 58
-3.188192 2.420664 -9.068635 46 47 53
-3.117647 2.411765 -9.035295 14 23 32
-3.081481 2.429630 -9.102222 9 20 27
-3.022222 2.429630 -9.102222 14 24 30
-2.941176 2.411765 -9.035295 19 25 27
-2.871795 2.402930 -9.002198 15 21 18
-2.782609 2.376812 -8.904348 12 19 15
0.336336 1.969970 -7.380180 48 48 36
0.382090 1.958209 -7.336120 76 70 59
0.428571 1.952381 -7.314286 83 72 58
0.476190 1.952381 -7.314286 80 70 57
0.606897 2.262069 -8.474483 53 52 43
0.664360 2.269896 -8.503806 65 62 51
0.719723 2.269896 -8.503806 84 74 57
0.775087 2.269896 -8.503806 95 82 64
0.830450 2.269896 -8.503806 98 84 63
0.888889 2.277778 -8.533334 90 76 59
0.947735 2.285714 -8.563066 49 46 35
1.006993 2.293706 -8.593007 60 60 48
1.251701 2.231292 -8.359184 11 18 12
1.275748 2.179402 -8.164784 30 39 27
1.341317 1.964072 -7.358084 89 77 62
1.372781 1.940828 -7.271006 78 68 56
1.407625 1.923754 -7.207038 57 54 45
1.458824 1.929412 -7.228236 53 52 42
1.519288 1.946588 -7.292582 72 66 49
1.571429 1.952381 -7.314286 91 78 58
1.628742 1.964072 -7.358084 82 71 54
1.733746 2.030960 -7.608669 43 41 34
0.679303 0.497346 -1.863230 18 36 39
0.691433 0.497346 -1.863230 32 44 33
0.700906 0.495468 -1.856193 104 100 84
0.711379 0.494348 -1.851997 122 109 93
0.723982 0.494721 -1.853394 125 111 95
0.742770 0.499239 -1.870320 123 110 96
0.754947 0.499239 -1.870320 124 111 97
0.766540 0.498859 -1.868897 125 111 98
0.777525 0.498102 -1.866059 124 110 98
0.787879 0.496970 -1.861818 123 110 97
4.173913 2.193980 -8.219398 109 98 86
4.025478 2.089172 -7.826752 108 99 86
4.076433 2.089172 -7.826752 112 102 88
4.221498 2.136808 -8.005212 120 107 94
4.273616 2.136808 -8.005212 115 102 90
4.202532 2.075949 -7.777215 115 101 90
4.200000 2.050000 -7.680000 107 96 85
4.184616 2.018461 -7.561846 102 92 80
4.340694 2.069401 -7.752682 104 93 81
4.493827 2.024691 -7.585186 114 102 90
4.628931 2.062893 -7.728302 115 102 90
4.606811 2.030960 -7.608669 107 96 84
4.729560 2.062893 -7.728302 110 98 86
-1.055670 0.439863 -1.689072 63 64 61
-1.263158 0.580762 -2.230127 57 62 58
-1.146667 0.533333 -2.048000 35 46 44
-1.132390 0.532889 -2.046295 59 70 72
-1.118136 0.532446 -2.044592 69 78 79
-1.105745 0.532889 -2.046295 69 78 79
-1.092423 0.532889 -2.046295 69 76 78
-1.078203 0.532446 -2.044592 50 56 56
-1.064007 0.532003 -2.042893 14 20 18
-1.049834 0.531561 -2.041196 16 22 18
-1.036545 0.531561 -2.041196 17 23 19
-1.023256 0.531561 -2.041196 10 18 20
-1.008292 0.530680 -2.037811 8 20 28
-3.595506 2.397004 -9.204494 86 83 73
-3.687500 2.500000 -9.600000 84 79 70
-3.625000 2.500000 -9.600000 31 37 42
-3.562500 2.500000 -9.600000 10 22 31
-3.381132 2.415094 -9.273963 46 53 54
-3.271375 2.379182 -9.136060 97 89 80
-3.211896 2.379182 -9.136060 79 73 70
-3.140741 2.370370 -9.102222 21 28 35
-3.092937 2.379182 -9.136060 9 20 28
-3.022222 2.370370 -9.102222 21 35 44
-2.941176 2.352941 -9.035295 49 55 60
-2.882353 2.352941 -9.035295 47 45 44
-2.823529 2.352941 -9.035295 17 22 21
-2.812500 2.500000 -9.600000 14 21 17
-2.750000 2.500000 -9.600000 8 15 12
0.291793 1.945289 -7.469909 25 32 22
0.336336 1.921922 -7.380180 40 44 32
0.382090 1.910448 -7.336120 70 67 55
0.428571 1.904762 -7.314286 84 75 60
0.476190 1.904762 -7.314286 85 74 61
0.608997 2.214533 -8.503806 61 59 48
0.666667 2.222222 -8.533334 73 69 59
0.722222 2.222222 -8.533334 85 77 58
0.780488 2.229965 -8.563066 98 86 66
0.833333 2.222222 -8.533334 99 87 64
0.888889 2.222222 -8.533334 94 81 62
0.944444 2.222222 -8.533334 53 50 37
1.000000 2.222222 -8.533334 56 59 47
0.500824 1.054366 -4.048765 87 81 67
0.527183 1.054366 -4.048765 101 88 75
1.353474 1.933535 -7.424774 91 79 63
1.372781 1.893491 -7.271006 82 71 58
1.420118 1.893491 -7.271006 59 56 46
1.458824 1.882353 -7.228236 54 53 43
1.523810 1.904762 -7.314286 72 66 48
1.571429 1.904762 -7.314286 93 80 59
1.648485 1.939394 -7.447273 86 74 57
0.967033 0.703297 -2.700660 21 44 50
0.676226 0.483019 -1.854792 18 36 39
0.688302 0.483019 -1.854792 32 44 33
0.698795 0.481928 -1.850603 103 99 83
0.709774 0.481203 -1.847820 121 108 93
0.721262 0.480841 -1.846431 125 111 95
0.736048 0.482655 -1.853394 124 111 96
4.303448 2.206897 -8.474483 111 100 87
4.025478 2.038217 -7.826752 111 100 87
4.037855 2.018927 -7.752682 110 100 86
4.024845 1.987578 -7.632298 111 101 87
4.100000 2.000000 -7.680000 107 98 85
4.124224 1.987578 -7.632298 111 101 87
4.160991 1.981424 -7.608669 115 102 90
4.184616 1.969231 -7.561846 103 93 81
4.233846 1.969231 -7.561846 106 96 82
4.982699 2.214533 -8.503806 112 100 87
4.493827 1.975309 -7.585186 108 98 85
4.628931 2.012579 -7.728302 105 95 83
4.679245 2.012579 -7.728302 102 94 81
5.222222 2.222222 -8.533334 110 100 85
-1.054945 0.428571 -1.687912 67 67 64
-1.044674 0.428866 -1.689072 82 82 79
-1.033677 0.428866 -1.689072 97 97 92
-1.021277 0.428277 -1.686754 99 96 91
-1.010295 0.428277 -1.686754 76 79 76
-1.092423 0.519567 -2.046295 72 79 81
-1.079101 0.519567 -2.046295 54 59 58
-1.065778 0.519567 -2.046295 14 19 18
-1.050707 0.518703 -2.042893 13 21 17
-1.036545 0.518272 -2.041196 16 23 19
-1.022407 0.517842 -2.039502 13 20 22
-1.006623 0.516556 -2.034437 9 20 28
-0.993378 0.516556 -2.034437 27 38 43
-3.065868 1.868263 -7.358084 99 91 81
-2.973451 1.840708 -7.249558 69 65 64
-2.970060 1.868263 -7.358084 15 25 33
-3.655431 2.337079 -9.204494 15 27 29
-3.595506 2.337079 -9.204494 32 41 32
-3.687500 2.437500 -9.600000 40 47 38
-3.625000 2.437500 -9.600000 27 35 38
-3.562500 2.437500 -9.600000 10 22 30
-3.500000 2.437500 -9.600000 39 49 50
-3.308271 2.345865 -9.239099 94 89 79
-3.211896 2.319703 -9.136060 87 80 75
-3.152416 2.319703 -9.136060 28 33 40
-3.081481 2.311111 -9.102222 9 20 27
-3.000000 2.294118 -9.035295 22 36 44
-2.941176 2.294118 -9.035295 71 75 75
-2.882353 2.294118 -9.035295 87 80 75
-2.823529 2.294118 -9.035295 32 35 38
-2.764706 2.294118 -9.035295 9 17 17
-2.705882 2.294118 -9.035295 19 25 22
-2.647059 2.294118 -9.035295 16 20 18
-2.588235 2.294118 -9.035295 15 20 18
-2.538745 2.302583 -9.068635 13 17 16
0.253968 1.980952 -7.801905 11 19 14
0.292683 1.902439 -7.492683 20 26 19
0.339394 1.890909 -7.447273 36 40 29
0.382090 1.862687 -7.336120 66 65 53
0.428571 1.857143 -7.314286 85 77 61
0.477612 1.862687 -7.336120 89 78 64
0.608997 2.159169 -8.503806 67 64 51
0.882759 2.151724 -8.474483 97 83 65
0.448845 1.029703 -4.055446 59 53 41
0.474465 1.028007 -4.048765 52 55 44
0.500000 1.026316 -4.042105 87 81 67
0.526316 1.026316 -4.042105 105 91 78
1.389222 1.868263 -7.358084 85 73 61
1.458824 1.835294 -7.228236 54 54 43
1.523810 1.857143 -7.314286 73 67 49
1.571429 1.857143 -7.314286 95 82 62
1.633634 1.873874 -7.380180 90 77 62
1.739130 1.937888 -7.632298 50 47 39
0.967033 0.685714 -2.700660 22 44 50
0.674699 0.469880 -1.850603 19 36 38
0.686747 0.469880 -1.850603 32 44 33
0.697744 0.469173 -1.847820 102 98 83
0.707646 0.467766 -1.842279 122 109 93
0.715350 0.464978 -1.831297 125 111 95
0.727273 0.464978 -1.831297 124 110 96
4.358621 2.151724 -8.474483 114 101 88
4.037855 1.968454 -7.752682 114 101 88
3.927273 1.890909 -7.447273 114 101 89
4.049383 1.925926 -7.585186 113 100 88
4.111455 1.931889 -7.608669 115 103 90
4.160991 1.931889 -7.608669 120 105 93
4.197531 1.925926 -7.585186 111 98 86
4.246913 1.925926 -7.585186 116 103 89
4.405063 1.974684 -7.777215 119 105 92
5.197080 2.277372 -8.969343 120 106 93
5.198556 2.252707 -8.872203 121 106 92
5.144876 2.204947 -8.684099 116 103 89
5.128920 2.174216 -8.563066 113 100 87
5.257950 2.204947 -8.684099 112 101 86
-1.055670 0.417869 -1.689072 64 67 63
-1.045392 0.418157 -1.690234 91 91 86
-1.034388 0.418157 -1.690234 118 113 106
-1.021277 0.417296 -1.686754 116 110 102
-1.009602 0.417010 -1.685597 83 84 81
-0.995896 0.415869 -1.680985 73 79 79
-0.986977 0.416724 -1.684441 78 84 84
-0.978022 0.417582 -1.687912 81 86 85
-0.974394 0.420761 -1.700761 83 86 85
-1.093333 0.506667 -2.048000 77 83 85
-1.079101 0.506245 -2.046295 59 63 62
-1.065778 0.506245 -2.046295 14 20 18
-1.049834 0.504983 -2.041196 12 19 16
-1.036545 0.504983 -2.041196 17 23 18
-1.022407 0.504564 -2.039502 15 23 23
-1.008292 0.504146 -2.037811 10 21 29
-0.995025 0.504146 -2.037811 19 31 39
-3.002933 1.782991 -7.207038 99 92 83
-2.956012 1.782991 -7.207038 80 74 71
-2.917647 1.788235 -7.228236 21 28 34
-2.879056 1.793510 -7.249558 8 17 18
-2.815249 1.782991 -7.207038 7 15 12
-2.768328 1.782991 -7.207038 9 17 14
-3.625000 2.375000 -9.600000 11 19 19
-3.562500 2.375000 -9.600000 9 19 23
-3.500000 2.375000 -9.600000 29 40 41
-3.437500 2.375000 -9.600000 89 86 77
-3.223881 2.268657 -9.170150 93 85 78
-3.152416 2.260223 -9.136060 37 40 45
-3.070111 2.243542 -9.068635 9 19 26
-3.000000 2.235294 -9.035295 22 34 40
-2.941176 2.235294 -9.035295 86 85 78
-2.882353 2.235294 -9.035295 101 92 83
-2.823529 2.235294 -9.035295 42 44 47
-2.774908 2.243542 -9.068635 8 17 18
-2.715867 2.243542 -9.068635 18 25 22
-2.647059 2.235294 -9.035295 20 24 21
-2.569343 2.218978 -8.969343 35 40 33
0.220690 2.096552 -8.474483 12 18 15
0.264901 2.013245 -8.137749 28 31 25
0.302839 1.917981 -7.752682 51 46 37
0.341463 1.853659 -7.492683 43 43 32
0.385542 1.831325 -7.402410 62 62 50
0.429851 1.814925 -7.336120 86 78 63
0.477612 1.814925 -7.336120 94 82 67
0.526946 1.820359 -7.358084 71 66 54
0.422442 1.003300 -4.055446 99 85 67
0.448105 1.001647 -4.048765 65 57 44
0.473684 1.000000 -4.042105 48 51 39
0.500000 1.000000 -4.042105 84 80 66
0.525452 0.998358 -4.035468 107 94 80
0.552632 1.000000 -4.042105 86 73 63
0.578947 1.000000 -4.042105 33 31 25
1.362776 1.917981 -7.752682 93 82 66
1.413249 1.917981 -7.752682 94 82 66
0.785110 1.028765 -4.158376 89 77 64
0.812183 1.028765 -4.158376 63 58 47
1.463127 1.793510 -7.249558 56 55 45
2.000000 2.375000 -9.600000 73 68 50
1.585586 1.825826 -7.380180 96 84 62
1.689441 1.888199 -7.632298 92 79 63
1.750000 1.900000 -7.680000 55 50 43
1.817035 1.917981 -7.752682 56 57 48
0.967033 0.668132 -2.700660 23 44 51
0.674699 0.457831 -1.850603 19 36 39
0.685714 0.457143 -1.847820 32 43 33
0.696174 0.456114 -1.843661 102 98 82
0.707116 0.455431 -1.840899 123 110 94
0.714286 0.452381 -1.828572 126 111 94
0.726190 0.452381 -1.828572 124 110 94
4.625000 2.375000 -9.600000 132 118 102
4.687500 2.375000 -9.600000 132 117 102
4.750000 2.375000 -9.600000 129 114 100
5.000000 2.375000 -9.600000 129 114 98
3.927273 1.842424 -7.447273 127 112 97
4.049383 1.876543 -7.585186 125 111 96
4.111455 1.882353 -7.608669 126 111 96
4.160991 1.882353 -7.608669 125 110 96
4.210526 1.882353 -7.608669 124 109 94
4.300000 1.900000 -7.680000 124 109 94
4.405063 1.924051 -7.777215 122 107 92
5.083033 2.194946 -8.872203 123 108 93
5.197080 2.218978 -8.969343 129 112 97
5.255475 2.218978 -8.969343 107 96 82
5.313869 2.218978 -8.969343 77 76 60
5.352727 2.210909 -8.936728 72 73 57
-1.060773 0.408840 -1.697238 54 59 57
-1.049724 0.408840 -1.697238 93 93 88
-1.037241 0.408276 -1.694897 130 123 115
-1.023384 0.407153 -1.690234 127 120 110
-1.010295 0.406314 -1.686754 87 88 83
-0.997260 0.405479 -1.683288 71 78 77
-0.986977 0.405757 -1.684441 77 84 83
-0.976011 0.405757 -1.684441 81 86 85
-0.883117 0.384416 -1.595844 60 70 74
-1.106667 0.493333 -2.048000 76 83 85
-1.093333 0.493333 -2.048000 80 87 87
-1.080000 0.493333 -2.048000 64 68 66
-1.065778 0.492923 -2.046295 16 20 19
-1.049834 0.491694 -2.041196 11 18 15
-1.035685 0.491286 -2.039502 17 23 19
-1.022407 0.491286 -2.039502 19 26 26
-1.009129 0.491286 -2.039502 13 23 31
-3.002933 1.736070 -7.207038 94 89 80
-2.956012 1.736070 -7.207038 87 81 75
-2.917647 1.741176 -7.228236 28 33 37
-2.862170 1.736070 -7.207038 7 15 15
-2.798834 1.725947 -7.165015 7 14 11
-2.752187 1.725947 -7.165015 7 14 12
-2.753709 1.756677 -7.292582 7 14 12
-3.562500 2.312500 -9.600000 7 14 13
-3.500000 2.312500 -9.600000 16 26 22
-3.437500 2.312500 -9.600000 57 63 51
-3.375000 2.312500 -9.600000 76 75 63
-3.164179 2.208955 -9.170150 37 41 41
-3.070111 2.184502 -9.068635 9 18 21
-3.011070 2.184502 -9.068635 16 28 30
-2.941176 2.176471 -9.035295 66 71 61
-2.892989 2.184502 -9.068635 87 84 71
-2.844445 2.192593 -9.102222 44 46 44
-2.785185 2.192593 -9.102222 11 19 18
-2.725926 2.192593 -9.102222 12 20 16
-2.656826 2.184502 -9.068635 15 22 18
-2.597786 2.184502 -9.068635 28 38 28
-2.538745 2.184502 -9.068635 39 44 36
0.176471 2.176471 -9.035295 14 21 18
0.220690 2.041379 -8.474483 33 36 31
0.264901 1.960265 -8.137749 69 62 55
0.304762 1.879365 -7.801905 74 65 56
0.348910 1.844237 -7.656075 53 50 43
0.390244 1.804878 -7.492683 61 61 54
0.433735 1.783133 -7.402410 84 78 67
0.479042 1.772455 -7.358084 91 81 70
0.525373 1.767164 -7.336120 71 69 58
0.574850 1.772455 -7.358084 88 85 76
0.422442 0.976898 -4.055446 99 86 66
0.448105 0.975288 -4.048765 70 61 47
0.473684 0.973684 -4.042105 45 48 35
0.499179 0.972085 -4.035468 79 76 62
0.522876 0.967320 -4.015687 105 93 78
0.549918 0.968903 -4.022259 92 78 68
0.576105 0.968903 -4.022259 40 36 30
0.625407 0.964169 -4.002606 14 23 15
0.655738 0.970492 -4.028852 70 75 62
0.681967 0.970492 -4.028852 89 82 71
1.362776 1.867508 -7.752682 90 80 65
1.413249 1.867508 -7.752682 96 84 67
0.785110 1.001692 -4.158376 91 79 65
0.812183 1.001692 -4.158376 65 59 48
2.062500 2.312500 -9.600000 97 85 63
1.700000 1.850000 -7.680000 92 80 62
1.750000 1.850000 -7.680000 60 54 47
1.800000 1.850000 -7.680000 53 54 45
1.928339 1.928339 -8.005212 77 71 60
0.673684 0.445113 -1.847820 19 36 39
0.684685 0.444444 -1.845045 31 43 32
0.696174 0.444111 -1.843661 101 98 82
0.706587 0.443114 -1.839521 124 111 94
0.712695 0.439495 -1.824499 126 112 96
0.724573 0.439495 -1.824499 126 112 98
4.562500 2.312500 -9.600000 127 115 100
4.625000 2.312500 -9.600000 131 118 104
4.687500 2.312500 -9.600000 131 118 103
4.750000 2.312500 -9.600000 129 116 102
4.812500 2.312500 -9.600000 130 117 102
4.875000 2.312500 -9.600000 131 117 101
4.315790 1.947368 -8.084210 125 112 97
4.297735 1.915858 -7.953398 126 112 99
4.213166 1.855799 -7.704075 125 111 97
4.250000 1.850000 -7.680000 123 109 96
4.354430 1.873418 -7.777215 121 108 92
4.405063 1.873418 -7.777215 122 108 94
4.541935 1.909677 -7.927742 126 112 96
4.638436 1.928339 -8.005212 128 110 97
5.236363 2.152727 -8.936728 78 69 64
5.313869 2.160584 -8.969343 23 34 31
5.352727 2.152727 -8.936728 28 45 45
-1.062241 0.398340 -1.699585 51 56 55
-1.054092 0.399445 -1.704300 85 87 82
-1.042996 0.399445 -1.704300 125 120 110
-1.026207 0.397241 -1.694897 128 121 110
-1.012380 0.396149 -1.690234 88 89 83
-0.998628 0.395062 -1.685597 71 78 77
-0.986977 0.394791 -1.684441 77 83 83
-0.975342 0.394521 -1.683288 81 86 85
-0.965045 0.394791 -1.684441 86 89 88
-0.953425 0.394521 -1.683288 71 74 70
-0.898172 0.375979 -1.604178 41 51 49
-0.881971 0.373541 -1.593774 63 74 76
-0.871595 0.373541 -1.593774 72 81 82
-1.106667 0.480000 -2.048000 76 84 85
-1.093333 0.480000 -2.048000 82 87 88
-1.080000 0.480000 -2.048000 65 69 67
-1.066667 0.480000 -2.048000 16 20 19
-1.048963 0.478008 -2.039502 9 16 14
-1.035685 0.478008 -2.039502 16 23 19
-1.022407 0.478008 -2.039502 28 33 32
-1.207547 0.571996 -2.440516 24 31 38
-3.011765 1.694118 -7.228236 88 85 78
-2.964706 1.694118 -7.228236 92 85 78
-2.909091 1.689150 -7.207038 37 40 41
-2.853801 1.684211 -7.185965 8 16 14
-2.766571 1.659942 -7.082421 7 15 12
-2.720461 1.659942 -7.082421 7 15 12
-2.721408 1.689150 -7.207038 7 14 11
-3.562500 2.250000 -9.600000 6 14 11
-3.500000 2.250000 -9.600000 7 15 11
-3.437500 2.250000 -9.600000 12 22 15
-3.375000 2.250000 -9.600000 21 31 21
-3.312500 2.250000 -9.600000 15 23 19
-3.104478 2.149254 -9.170150 9 16 15
-3.033457 2.141264 -9.136060 10 19 16
-2.973978 2.141264 -9.136060 21 31 23
-2.936330 2.157303 -9.204494 28 36 26
-3.000000 2.250000 -9.600000 18 25 19
-2.656604 2.173585 -9.273963 12 21 15
-2.567164 2.149254 -9.170150 14 22 17
0.526946 1.724551 -7.358084 99 95 86
0.423140 0.952066 -4.062149 77 72 55
0.448105 0.948929 -4.048765 68 61 47
0.472906 0.945813 -4.035468 42 46 33
0.496732 0.941176 -4.015687 72 72 58
0.521173 0.938111 -4.002606 102 92 77
0.543689 0.932039 -3.976699 98 83 72
0.567742 0.929032 -3.963871 49 43 37
0.592593 0.927536 -3.957488 13 18 12
0.620355 0.930533 -3.970275 13 22 14
0.647249 0.932039 -3.976699 62 69 56
0.674230 0.933549 -3.983145 89 83 72
0.700162 0.933549 -3.983145 88 78 62
0.756757 0.972973 -4.151351 98 86 68
0.785110 0.974619 -4.158376 92 80 65
1.500000 1.800000 -7.680000 68 61 49
1.550000 1.800000 -7.680000 58 57 46
2.125000 2.250000 -9.600000 93 80 62
1.750000 1.800000 -7.680000 64 57 49
1.800000 1.800000 -7.680000 50 51 43
0.673684 0.433083 -1.847820 20 37 39
0.684171 0.432108 -1.843661 31 43 32
0.695652 0.431784 -1.842279 101 98 82
0.705004 0.430172 -1.835400 124 111 95
0.712695 0.427617 -1.824499 127 113 98
0.724573 0.427617 -1.824499 127 114 100
4.562500 2.250000 -9.600000 132 118 104
4.625000 2.250000 -9.600000 133 119 105
4.687500 2.250000 -9.600000 133 119 105
4.750000 2.250000 -9.600000 132 118 104
4.812500 2.250000 -9.600000 132 118 104
4.875000 2.250000 -9.600000 132 117 102
4.937500 2.250000 -9.600000 132 117 102
4.524138 1.986207 -8.474483 120 107 93
4.382838 1.900990 -8.110891 116 104 91
4.349514 1.864078 -7.953398 112 102 88
4.372990 1.852090 -7.902251 115 103 89
4.424438 1.852090 -7.902251 116 104 90
4.475884 1.852090 -7.902251 119 107 92
4.527331 1.852090 -7.902251 127 113 98
4.520635 1.828571 -7.801905 129 111 99
-1.063712 0.387812 -1.701939 43 49 48
-1.056289 0.389159 -1.707853 68 72 67
-1.045170 0.389159 -1.707853 102 102 93
-1.029046 0.387275 -1.699585 114 111 100
-1.015873 0.386473 -1.696066 85 87 81
-1.001376 0.385144 -1.690234 71 78 78
-0.988332 0.384351 -1.686754 77 84 83
-0.970688 0.381731 -1.675256 81 86 85
-0.928148 0.369150 -1.620040 86 89 87
-0.912189 0.366972 -1.610485 70 73 69
-0.898172 0.365535 -1.604178 39 49 48
-0.883117 0.363636 -1.595844 66 75 78
-0.879006 0.366252 -1.607325 74 82 85
-1.066667 0.466667 -2.048000 17 22 20
-1.048963 0.464730 -2.039502 7 15 14
-1.035685 0.464730 -2.039502 15 23 19
-3.020649 1.651917 -7.249558 80 80 74
-2.964706 1.647059 -7.228236 98 89 81
-2.909091 1.642229 -7.207038 50 48 48
-2.820809 1.618497 -7.102890 10 16 15
-2.742857 1.600000 -7.021715 8 16 13
-2.681818 1.590909 -6.981819 8 16 13
-2.651428 1.600000 -7.021715 8 15 13
-3.375000 2.187500 -9.600000 8 17 13
-3.312500 2.187500 -9.600000 10 17 14
-3.250000 2.187500 -9.600000 10 17 14
-3.187500 2.187500 -9.600000 9 16 13
-3.125000 2.187500 -9.600000 10 15 12
-3.062500 2.187500 -9.600000 9 15 13
-2.626866 2.089552 -9.170150 6 14 12
-2.567164 2.089552 -9.170150 7 14 12
-2.535849 2.113208 -9.273963 9 17 13
0.448105 0.922570 -4.048765 63 59 45
0.472906 0.919540 -4.035468 42 44 32
0.495922 0.913540 -4.009136 67 67 54
0.516129 0.903226 -3.963871 98 89 75
0.541063 0.901771 -3.957488 102 88 76
0.565008 0.898876 -3.944783 58 51 44
0.590690 0.898876 -3.944783 15 18 13
0.618357 0.901771 -3.957488 13 20 13
0.644122 0.901771 -3.957488 49 56 43
0.670968 0.903226 -3.963871 82 77 66
0.693419 0.898876 -3.944783 83 75 58
0.717949 0.897436 -3.938462 98 86 68
0.785110 0.947547 -4.158376 93 81 66
1.500000 1.750000 -7.680000 71 63 50
1.550000 1.750000 -7.680000 59 57 46
1.605016 1.755486 -7.704075 65 63 47
1.655172 1.755486 -7.704075 97 85 63
1.700000 1.750000 -7.680000 95 81 63
1.750000 1.750000 -7.680000 68 60 50
1.800000 1.750000 -7.680000 48 49 40
1.940984 1.836066 -8.057705 74 70 59
0.672168 0.420105 -1.843661 20 37 39
0.683658 0.419790 -1.842279 30 42 31
0.694091 0.418848 -1.838145 100 97 81
0.704478 0.417910 -1.834030 124 112 96
0.713755 0.416357 -1.827212 128 115 98
0.725651 0.416357 -1.827212 128 115 101
4.625000 2.187500 -9.600000 134 120 105
4.687500 2.187500 -9.600000 134 120 105
4.750000 2.187500 -9.600000 133 120 105
4.812500 2.187500 -9.600000 133 119 104
4.875000 2.187500 -9.600000 133 118 102
4.937500 2.187500 -9.600000 133 118 103
5.000000 2.187500 -9.600000 128 114 101
4.890566 2.113208 -9.273963 121 107 95
4.524138 1.931034 -8.474483 119 105 93
4.486486 1.891892 -8.302703 111 99 87
4.435644 1.848185 -8.110891 107 97 84
4.401295 1.812298 -7.953398 115 103 90
4.424438 1.800643 -7.902251 116 104 91
4.475884 1.800643 -7.902251 119 107 93
4.469841 1.777778 -7.801905 128 114 100
-1.057024 0.378303 -1.709040 56 61 58
-1.045170 0.378040 -1.707853 77 80 74
-1.029758 0.376471 -1.700761 90 91 83
-1.017981 0.376210 -1.699585 77 80 76
-1.189543 0.444444 -2.007843 70 78 77
-0.990371 0.374140 -1.690234 77 83 83
-0.938695 0.358602 -1.620040 83 87 86
-0.923279 0.356721 -1.611541 87 90 88
-0.909804 0.355556 -1.606275 72 74 70
-0.899935 0.355788 -1.607325 41 50 49
-0.889470 0.355788 -1.607325 65 75 78
-1.012811 0.409947 -1.851997 74 82 85
-2.964706 1.600000 -7.228236 100 91 82
-2.909091 1.595308 -7.207038 62 58 54
-2.812680 1.567723 -7.082421 17 22 20
-2.727273 1.545455 -6.981819 10 18 15
-2.644258 1.523810 -6.884034 9 17 14
-2.599440 1.523810 -6.884034 11 19 15
-3.187500 2.125000 -9.600000 11 17 15
-3.125000 2.125000 -9.600000 20 24 22
-2.686567 2.029851 -9.170150 18 23 22
-2.626866 2.029851 -9.170150 19 24 23
0.472131 0.891803 -4.028852 43 44 32
0.495114 0.885993 -4.002606 61 63 51
0.516129 0.877419 -3.963871 94 87 73
0.539326 0.873194 -3.944783 105 91 80
0.565008 0.873194 -3.944783 66 57 50
0.589744 0.871795 -3.938462 17 20 14
0.616372 0.873194 -3.944783 12 19 12
0.643087 0.874598 -3.951126 41 48 36
0.667737 0.873194 -3.944783 81 76 66
0.688995 0.867624 -3.919617 80 72 56
0.714514 0.867624 -3.919617 99 86 70
0.742400 0.870400 -3.932160 94 82 67
1.500000 1.700000 -7.680000 74 65 53
1.550000 1.700000 -7.680000 59 56 45
1.600000 1.700000 -7.680000 63 61 46
1.650000 1.700000 -7.680000 95 84 62
1.700000 1.700000 -7.680000 97 83 64
1.750000 1.700000 -7.680000 73 64 52
1.800000 1.700000 -7.680000 47 48 39
1.940984 1.783607 -8.057705 74 70 59
1.993443 1.783607 -8.057705 69 61 53
2.045902 1.783607 -8.057705 29 28 23
0.683658 0.407796 -1.842279 30 42 31
0.694091 0.406881 -1.838145 100 97 81
0.704478 0.405970 -1.834030 125 112 96
0.715884 0.405667 -1.832662 129 115 99
4.625000 2.125000 -9.600000 128 116 101
4.687500 2.125000 -9.600000 127 116 101
4.750000 2.125000 -9.600000 129 117 102
4.812500 2.125000 -9.600000 129 116 102
4.875000 2.125000 -9.600000 132 118 102
4.937500 2.125000 -9.600000 133 119 103
5.000000 2.125000 -9.600000 130 115 102
4.747253 1.992674 -9.002198 126 111 99
4.587412 1.902098 -8.593007 121 108 96
4.579310 1.875862 -8.474483 117 105 93
4.540541 1.837838 -8.302703 120 107 94
4.488449 1.795380 -8.110891 121 107 95
4.424438 1.749196 -7.902251 120 107 94
4.419048 1.726984 -7.801905 125 111 98
4.469841 1.726984 -7.801905 131 116 102
4.463950 1.705329 -7.704075 131 112 100
-2.212518 0.768559 -3.577293 48 54 52
-2.182874 0.766328 -3.566909 61 65 62
-1.034051 0.366921 -1.707853 69 73 69
-1.214521 0.435644 -2.027723 66 72 70
-1.201320 0.435644 -2.027723 69 77 77
-1.177433 0.431725 -2.009485 77 83 82
-1.152104 0.427184 -1.988350 82 87 87
-0.926316 0.347368 -1.616842 88 91 89
-0.912787 0.346229 -1.611541 73 76 72
-1.045593 0.401216 -1.867477 41 50 48
-1.033435 0.401216 -1.867477 63 74 76
-1.015106 0.398792 -1.856193 73 81 84
-2.909091 1.548387 -7.207038 68 64 57
-2.812680 1.521614 -7.082421 18 24 20
-2.727273 1.500000 -6.981819 11 18 15
-2.644258 1.478992 -6.884034 10 18 15
-2.599440 1.478992 -6.884034 12 21 16
-3.562500 2.062500 -9.600000 21 28 24
-3.437500 2.062500 -9.600000 22 31 27
-3.375000 2.062500 -9.600000 19 26 23
-3.187500 2.062500 -9.600000 12 19 16
-3.125000 2.062500 -9.600000 26 32 28
-3.062500 2.062500 -9.600000 23 29 26
-3.000000 2.062500 -9.600000 25 32 28
-2.937500 2.062500 -9.600000 33 39 35
-2.736059 1.962825 -9.136060 31 36 33
-2.686567 1.970149 -9.170150 27 34 30
-2.636704 1.977528 -9.204494 32 39 35
0.472131 0.865574 -4.028852 47 46 34
0.497545 0.864157 -4.022259 55 58 46
0.516129 0.851613 -3.963871 90 84 69
0.539326 0.847512 -3.944783 107 94 81
0.564103 0.846154 -3.938462 76 65 57
0.589744 0.846154 -3.938462 22 22 17
0.615385 0.846154 -3.938462 12 18 12
0.641026 0.846154 -3.938462 33 41 29
0.663477 0.842105 -3.919617 77 74 63
0.687898 0.840764 -3.913376 75 70 52
0.713376 0.840764 -3.913376 99 87 69
0.740032 0.842105 -3.919617 95 83 66
1.500000 1.650000 -7.680000 78 68 55
1.550000 1.650000 -7.680000 58 56 45
1.600000 1.650000 -7.680000 62 60 46
1.650000 1.650000 -7.680000 91 82 60
1.700000 1.650000 -7.680000 99 85 65
1.750000 1.650000 -7.680000 78 68 54
1.800000 1.650000 -7.680000 47 48 38
1.915858 1.708738 -7.953398 70 68 57
1.986928 1.725490 -8.031373 70 64 54
2.039216 1.725490 -8.031373 34 33 28
2.071198 1.708738 -7.953398 7 13 10
0.693573 0.394619 -1.836771 98 96 80
0.703952 0.393736 -1.832662 125 113 97
4.562500 2.062500 -9.600000 127 114 101
4.625000 2.062500 -9.600000 123 112 98
4.687500 2.062500 -9.600000 125 113 99
4.750000 2.062500 -9.600000 127 115 101
4.812500 2.062500 -9.600000 128 115 102
4.875000 2.062500 -9.600000 132 118 102
4.937500 2.062500 -9.600000 133 119 103
5.000000 2.062500 -9.600000 132 118 104
4.747253 1.934066 -9.002198 131 116 103
4.702509 1.892473 -8.808602 126 112 100
4.643357 1.846154 -8.593007 122 109 96
4.666667 1.833333 -8.533334 126 112 99
4.705883 1.826990 -8.503806 126 112 99
4.586667 1.760000 -8.192000 126 112 99
4.419048 1.676190 -7.801905 128 114 100
4.469841 1.676190 -7.801905 130 117 102
-2.189229 0.745269 -3.577293 53 59 57
-1.250420 0.430252 -2.065210 60 64 62
-1.227690 0.427023 -2.049708 60 67 66
-1.201320 0.422442 -2.027723 70 78 78
-1.177433 0.418643 -2.009485 78 84 85
-1.163399 0.418301 -2.007843 83 88 88
-1.142857 0.415584 -1.994805 89 92 91
-1.033435 0.389058 -1.867477 63 73 76
-1.015106 0.386707 -1.856193 73 81 84
-1.003021 0.386707 -1.856193 79 86 89
-1.101595 0.429891 -2.063476 88 93 94
-2.820809 1.479769 -7.102890 10 18 15
-2.735043 1.458689 -7.001709 9 17 13
-2.681818 1.454545 -6.981819 9 17 13
-2.614084 1.442253 -6.922817 9 17 13
-3.562500 2.000000 -9.600000 9 16 13
-3.500000 2.000000 -9.600000 8 16 12
-3.437500 2.000000 -9.600000 8 16 13
-3.375000 2.000000 -9.600000 8 17 13
-3.312500 2.000000 -9.600000 9 16 13
-3.250000 2.000000 -9.600000 9 16 13
-3.187500 2.000000 -9.600000 8 16 13
-3.125000 2.000000 -9.600000 10 18 14
-3.062500 2.000000 -9.600000 9 16 13
-3.000000 2.000000 -9.600000 8 16 13
-2.937500 2.000000 -9.600000 9 17 13
-2.766917 1.924812 -9.239099 8 17 13
-2.696629 1.917603 -9.204494 8 17 12
-2.646616 1.924812 -9.239099 9 17 13
-2.687500 2.000000 -9.600000 9 17 13
0.807122 1.519288 -7.292582 73 69 55
0.852071 1.514793 -7.271006 54 50 38
0.498361 0.839344 -4.028852 50 54 41
0.621359 0.994175 -4.772039 84 80 65
0.541936 0.825806 -3.963871 108 95 81
0.565916 0.823151 -3.951126 84 71 63
0.589744 0.820513 -3.938462 26 25 20
0.615385 0.820513 -3.938462 12 17 12
0.637959 0.816587 -3.919617 25 33 23
0.661367 0.813990 -3.907154 68 67 56
0.686804 0.813990 -3.907154 71 66 48
0.713376 0.815287 -3.913376 97 85 67
1.436532 1.585139 -7.608669 96 83 67
1.500000 1.600000 -7.680000 81 70 58
1.550000 1.600000 -7.680000 58 55 44
1.600000 1.600000 -7.680000 62 60 47
1.650000 1.600000 -7.680000 87 79 57
1.700000 1.600000 -7.680000 101 87 65
1.750000 1.600000 -7.680000 83 72 57
1.805643 1.605016 -7.704075 48 48 39
1.903537 1.646302 -7.902251 67 65 54
1.986928 1.673203 -8.031373 70 65 55
2.045902 1.678689 -8.057705 38 36 31
2.071198 1.656958 -7.953398 8 13 10
2.122977 1.656958 -7.953398 6 13 10
2.126582 1.620253 -7.777215 5 12 10
2.150000 1.600000 -7.680000 7 16 12
4.562500 2.000000 -9.600000 125 113 99
4.625000 2.000000 -9.600000 128 115 101
4.687500 2.000000 -9.600000 128 115 100
4.750000 2.000000 -9.600000 128 116 101
4.812500 2.000000 -9.600000 132 119 104
4.875000 2.000000 -9.600000 133 118 102
4.937500 2.000000 -9.600000 132 118 103
